6.444978027343750000e+02,6.455148925781250000e+02,6.455148925781250000e+02,6.442937011718750000e+02,6.442937011718750000e+02,6.450123901367187500e+02,6.450123901367187500e+02,6.453592529296875000e+02,6.453592529296875000e+02,6.453343505859375000e+02,6.453343505859375000e+02,6.437512207031250000e+02,6.437512207031250000e+02,6.450169677734375000e+02,6.450169677734375000e+02,6.450612792968750000e+02,6.450612792968750000e+02,6.440838623046875000e+02,6.440838623046875000e+02,6.443930053710937500e+02,6.443930053710937500e+02,6.456798706054687500e+02,6.456798706054687500e+02,6.493179931640625000e+02,6.493179931640625000e+02,6.601020507812500000e+02,6.601020507812500000e+02,6.056598510742187500e+02,6.056598510742187500e+02,6.002520751953125000e+02,6.002520751953125000e+02,5.948583374023437500e+02,5.948583374023437500e+02,5.954375610351562500e+02,5.954375610351562500e+02,5.934208984375000000e+02,5.934208984375000000e+02,5.937346191406250000e+02,5.937346191406250000e+02,5.943790893554687500e+02,5.943790893554687500e+02,5.912678222656250000e+02,5.912678222656250000e+02,5.913995361328125000e+02,5.913995361328125000e+02,5.917608642578125000e+02,5.917608642578125000e+02,5.925443725585937500e+02,5.925443725585937500e+02,5.927111206054687500e+02,5.927111206054687500e+02,5.923573608398437500e+02,5.923573608398437500e+02,5.920661010742187500e+02,5.920661010742187500e+02,5.920711059570312500e+02,5.920711059570312500e+02,5.933350830078125000e+02,5.933350830078125000e+02,5.919178466796875000e+02,5.919178466796875000e+02,5.943114624023437500e+02,5.943114624023437500e+02,5.954719238281250000e+02,5.954719238281250000e+02,6.011628417968750000e+02,6.011628417968750000e+02,6.002210693359375000e+02,6.002210693359375000e+02,6.087953491210937500e+02,6.087953491210937500e+02,6.189891967773437500e+02,6.189891967773437500e+02,6.434989013671875000e+02,6.434989013671875000e+02,6.444411010742187500e+02,6.444411010742187500e+02,6.439118041992187500e+02,6.439118041992187500e+02,6.426060791015625000e+02,6.426060791015625000e+02,6.442706298828125000e+02,6.442706298828125000e+02,6.426970825195312500e+02,6.426970825195312500e+02,6.450921020507812500e+02,6.450921020507812500e+02,6.454664916992187500e+02,6.454664916992187500e+02,6.457033081054687500e+02,6.457033081054687500e+02,6.455652465820312500e+02,6.455652465820312500e+02,6.454000854492187500e+02,6.454000854492187500e+02,6.432194824218750000e+02,6.432194824218750000e+02,6.469576416015625000e+02,6.469576416015625000e+02,6.460790405273437500e+02,6.460790405273437500e+02,6.449516601562500000e+02,6.449516601562500000e+02,6.470649414062500000e+02,6.470649414062500000e+02,6.463231201171875000e+02,6.463231201171875000e+02,6.458181762695312500e+02,6.458181762695312500e+02,6.455223388671875000e+02,6.455223388671875000e+02,6.454094238281250000e+02,6.454094238281250000e+02,6.461704101562500000e+02,6.461704101562500000e+02,6.447409057617187500e+02,6.447409057617187500e+02,6.398100585937500000e+02,6.398100585937500000e+02
6.453110351562500000e+02,6.453503417968750000e+02,6.453503417968750000e+02,6.462720336914062500e+02,6.462720336914062500e+02,6.452606201171875000e+02,6.452606201171875000e+02,6.442728271484375000e+02,6.442728271484375000e+02,6.459859619140625000e+02,6.459859619140625000e+02,6.415377807617187500e+02,6.415377807617187500e+02,6.453706665039062500e+02,6.453706665039062500e+02,6.468624267578125000e+02,6.468624267578125000e+02,6.446426391601562500e+02,6.446426391601562500e+02,6.448265991210937500e+02,6.448265991210937500e+02,6.424529418945312500e+02,6.424529418945312500e+02,6.451177978515625000e+02,6.451177978515625000e+02,6.440290527343750000e+02,6.440290527343750000e+02,6.482218017578125000e+02,6.482218017578125000e+02,5.986022949218750000e+02,5.986022949218750000e+02,5.966877441406250000e+02,5.966877441406250000e+02,5.956846313476562500e+02,5.956846313476562500e+02,5.939904174804687500e+02,5.939904174804687500e+02,5.960982055664062500e+02,5.960982055664062500e+02,5.953433837890625000e+02,5.953433837890625000e+02,5.921214599609375000e+02,5.921214599609375000e+02,5.911616821289062500e+02,5.911616821289062500e+02,5.927106933593750000e+02,5.927106933593750000e+02,5.921340332031250000e+02,5.921340332031250000e+02,5.921695556640625000e+02,5.921695556640625000e+02,5.926061401367187500e+02,5.926061401367187500e+02,5.935352783203125000e+02,5.935352783203125000e+02,5.938245239257812500e+02,5.938245239257812500e+02,5.926372680664062500e+02,5.926372680664062500e+02,5.931517333984375000e+02,5.931517333984375000e+02,5.931763916015625000e+02,5.931763916015625000e+02,5.970162963867187500e+02,5.970162963867187500e+02,6.051273803710937500e+02,6.051273803710937500e+02,5.996614379882812500e+02,5.996614379882812500e+02,6.103389892578125000e+02,6.103389892578125000e+02,6.871359252929687500e+02,6.871359252929687500e+02,6.464494018554687500e+02,6.464494018554687500e+02,6.445540161132812500e+02,6.445540161132812500e+02,6.447644042968750000e+02,6.447644042968750000e+02,6.454109497070312500e+02,6.454109497070312500e+02,6.437069702148437500e+02,6.437069702148437500e+02,6.431054077148437500e+02,6.431054077148437500e+02,6.439874877929687500e+02,6.439874877929687500e+02,6.454114990234375000e+02,6.454114990234375000e+02,6.452489013671875000e+02,6.452489013671875000e+02,6.461710205078125000e+02,6.461710205078125000e+02,6.467982177734375000e+02,6.467982177734375000e+02,6.484974975585937500e+02,6.484974975585937500e+02,6.474333496093750000e+02,6.474333496093750000e+02,6.473195800781250000e+02,6.473195800781250000e+02,6.462274780273437500e+02,6.462274780273437500e+02,6.465466918945312500e+02,6.465466918945312500e+02,6.469196777343750000e+02,6.469196777343750000e+02,6.454780273437500000e+02,6.454780273437500000e+02,6.464280395507812500e+02,6.464280395507812500e+02,6.447509765625000000e+02,6.447509765625000000e+02,6.449063720703125000e+02,6.449063720703125000e+02,6.469591064453125000e+02,6.469591064453125000e+02,6.398100585937500000e+02,6.398100585937500000e+02
6.456970825195312500e+02,6.436788940429687500e+02,6.436788940429687500e+02,6.441486206054687500e+02,6.441486206054687500e+02,6.450853881835937500e+02,6.450853881835937500e+02,6.422078247070312500e+02,6.422078247070312500e+02,6.446480102539062500e+02,6.446480102539062500e+02,6.436576538085937500e+02,6.436576538085937500e+02,6.443140258789062500e+02,6.443140258789062500e+02,6.443858032226562500e+02,6.443858032226562500e+02,6.435862426757812500e+02,6.435862426757812500e+02,6.455423583984375000e+02,6.455423583984375000e+02,6.457291259765625000e+02,6.457291259765625000e+02,6.448265991210937500e+02,6.448265991210937500e+02,6.454309082031250000e+02,6.454309082031250000e+02,6.575347290039062500e+02,6.575347290039062500e+02,5.987494506835937500e+02,5.987494506835937500e+02,5.966091308593750000e+02,5.966091308593750000e+02,5.947252807617187500e+02,5.947252807617187500e+02,5.960311889648437500e+02,5.960311889648437500e+02,5.948023071289062500e+02,5.948023071289062500e+02,5.944165039062500000e+02,5.944165039062500000e+02,5.912377319335937500e+02,5.912377319335937500e+02,5.916301879882812500e+02,5.916301879882812500e+02,5.913492431640625000e+02,5.913492431640625000e+02,5.923991088867187500e+02,5.923991088867187500e+02,5.932561035156250000e+02,5.932561035156250000e+02,5.936197509765625000e+02,5.936197509765625000e+02,5.925620117187500000e+02,5.925620117187500000e+02,5.925318603515625000e+02,5.925318603515625000e+02,5.933635864257812500e+02,5.933635864257812500e+02,5.940199584960937500e+02,5.940199584960937500e+02,5.949216308593750000e+02,5.949216308593750000e+02,5.968724365234375000e+02,5.968724365234375000e+02,6.043779296875000000e+02,6.043779296875000000e+02,6.003939208984375000e+02,6.003939208984375000e+02,6.024847412109375000e+02,6.024847412109375000e+02,6.620415649414062500e+02,6.620415649414062500e+02,6.449148559570312500e+02,6.449148559570312500e+02,6.449291992187500000e+02,6.449291992187500000e+02,6.453583374023437500e+02,6.453583374023437500e+02,6.450784912109375000e+02,6.450784912109375000e+02,6.453579711914062500e+02,6.453579711914062500e+02,6.455073242187500000e+02,6.455073242187500000e+02,6.464445800781250000e+02,6.464445800781250000e+02,6.451702270507812500e+02,6.451702270507812500e+02,6.462830200195312500e+02,6.462830200195312500e+02,6.476738281250000000e+02,6.476738281250000000e+02,6.461228637695312500e+02,6.461228637695312500e+02,6.464629516601562500e+02,6.464629516601562500e+02,6.452192382812500000e+02,6.452192382812500000e+02,6.461837158203125000e+02,6.461837158203125000e+02,6.452358398437500000e+02,6.452358398437500000e+02,6.465774536132812500e+02,6.465774536132812500e+02,6.451834106445312500e+02,6.451834106445312500e+02,6.457269287109375000e+02,6.457269287109375000e+02,6.465926513671875000e+02,6.465926513671875000e+02,6.457177124023437500e+02,6.457177124023437500e+02,6.448853149414062500e+02,6.448853149414062500e+02,6.480464477539062500e+02,6.480464477539062500e+02,6.398100585937500000e+02,6.398100585937500000e+02
6.463117065429687500e+02,6.459586181640625000e+02,6.459586181640625000e+02,6.436898803710937500e+02,6.436898803710937500e+02,6.464254760742187500e+02,6.464254760742187500e+02,6.439220581054687500e+02,6.439220581054687500e+02,6.424046630859375000e+02,6.424046630859375000e+02,6.450557250976562500e+02,6.450557250976562500e+02,6.457327270507812500e+02,6.457327270507812500e+02,6.458760986328125000e+02,6.458760986328125000e+02,6.449867553710937500e+02,6.449867553710937500e+02,6.435742797851562500e+02,6.435742797851562500e+02,6.446636352539062500e+02,6.446636352539062500e+02,6.444299316406250000e+02,6.444299316406250000e+02,6.458211059570312500e+02,6.458211059570312500e+02,1.038212646484375000e+03,1.038212646484375000e+03,6.056321411132812500e+02,6.056321411132812500e+02,5.961973876953125000e+02,5.961973876953125000e+02,5.958900146484375000e+02,5.958900146484375000e+02,5.949951171875000000e+02,5.949951171875000000e+02,5.948291625976562500e+02,5.948291625976562500e+02,5.955394897460937500e+02,5.955394897460937500e+02,5.916297607421875000e+02,5.916297607421875000e+02,5.916252441406250000e+02,5.916252441406250000e+02,5.916977539062500000e+02,5.916977539062500000e+02,5.923243408203125000e+02,5.923243408203125000e+02,5.916616210937500000e+02,5.916616210937500000e+02,5.924134521484375000e+02,5.924134521484375000e+02,5.927902832031250000e+02,5.927902832031250000e+02,5.923526611328125000e+02,5.923526611328125000e+02,5.924147949218750000e+02,5.924147949218750000e+02,5.934768676757812500e+02,5.934768676757812500e+02,5.937773437500000000e+02,5.937773437500000000e+02,5.973612060546875000e+02,5.973612060546875000e+02,5.996705932617187500e+02,5.996705932617187500e+02,6.080955810546875000e+02,6.080955810546875000e+02,6.720447387695312500e+02,6.720447387695312500e+02,6.473439331054687500e+02,6.473439331054687500e+02,6.466646118164062500e+02,6.466646118164062500e+02,6.448387451171875000e+02,6.448387451171875000e+02,6.446597290039062500e+02,6.446597290039062500e+02,6.444903564453125000e+02,6.444903564453125000e+02,6.460109252929687500e+02,6.460109252929687500e+02,6.455391845703125000e+02,6.455391845703125000e+02,6.448807373046875000e+02,6.448807373046875000e+02,6.448069458007812500e+02,6.448069458007812500e+02,6.461856689453125000e+02,6.461856689453125000e+02,6.466026611328125000e+02,6.466026611328125000e+02,6.458143310546875000e+02,6.458143310546875000e+02,6.440817871093750000e+02,6.440817871093750000e+02,6.455972290039062500e+02,6.455972290039062500e+02,6.444102783203125000e+02,6.444102783203125000e+02,6.470867919921875000e+02,6.470867919921875000e+02,6.465269775390625000e+02,6.465269775390625000e+02,6.462496948242187500e+02,6.462496948242187500e+02,6.451063842773437500e+02,6.451063842773437500e+02,6.464503173828125000e+02,6.464503173828125000e+02,6.451246948242187500e+02,6.451246948242187500e+02,6.446459960937500000e+02,6.446459960937500000e+02,6.446564331054687500e+02,6.446564331054687500e+02,6.398100585937500000e+02,6.398100585937500000e+02
6.444174194335937500e+02,6.459512329101562500e+02,6.459512329101562500e+02,6.448046264648437500e+02,6.448046264648437500e+02,6.457108764648437500e+02,6.457108764648437500e+02,6.444957885742187500e+02,6.444957885742187500e+02,6.448218994140625000e+02,6.448218994140625000e+02,6.433151245117187500e+02,6.433151245117187500e+02,6.439481811523437500e+02,6.439481811523437500e+02,6.461160278320312500e+02,6.461160278320312500e+02,6.439526367187500000e+02,6.439526367187500000e+02,6.436026611328125000e+02,6.436026611328125000e+02,6.425571899414062500e+02,6.425571899414062500e+02,6.454014282226562500e+02,6.454014282226562500e+02,6.435145263671875000e+02,6.435145263671875000e+02,6.498410034179687500e+02,6.498410034179687500e+02,6.086162109375000000e+02,6.086162109375000000e+02,5.950623779296875000e+02,5.950623779296875000e+02,5.954665527343750000e+02,5.954665527343750000e+02,5.941896362304687500e+02,5.941896362304687500e+02,5.945414428710937500e+02,5.945414428710937500e+02,5.953278198242187500e+02,5.953278198242187500e+02,5.920933227539062500e+02,5.920933227539062500e+02,5.903197021484375000e+02,5.903197021484375000e+02,5.920659790039062500e+02,5.920659790039062500e+02,5.928386230468750000e+02,5.928386230468750000e+02,5.926358642578125000e+02,5.926358642578125000e+02,5.909627075195312500e+02,5.909627075195312500e+02,5.915708618164062500e+02,5.915708618164062500e+02,5.922032470703125000e+02,5.922032470703125000e+02,5.923231811523437500e+02,5.923231811523437500e+02,5.922929687500000000e+02,5.922929687500000000e+02,5.948725585937500000e+02,5.948725585937500000e+02,5.958504638671875000e+02,5.958504638671875000e+02,6.110341796875000000e+02,6.110341796875000000e+02,6.084519042968750000e+02,6.084519042968750000e+02,6.636478881835937500e+02,6.636478881835937500e+02,6.519251098632812500e+02,6.519251098632812500e+02,6.443527832031250000e+02,6.443527832031250000e+02,6.448980712890625000e+02,6.448980712890625000e+02,6.446475219726562500e+02,6.446475219726562500e+02,6.432185058593750000e+02,6.432185058593750000e+02,6.454142456054687500e+02,6.454142456054687500e+02,6.447017822265625000e+02,6.447017822265625000e+02,6.456908569335937500e+02,6.456908569335937500e+02,6.442451171875000000e+02,6.442451171875000000e+02,6.474585571289062500e+02,6.474585571289062500e+02,6.456937866210937500e+02,6.456937866210937500e+02,6.473184204101562500e+02,6.473184204101562500e+02,6.473104248046875000e+02,6.473104248046875000e+02,6.462209472656250000e+02,6.462209472656250000e+02,6.458871459960937500e+02,6.458871459960937500e+02,6.473068847656250000e+02,6.473068847656250000e+02,6.459472656250000000e+02,6.459472656250000000e+02,6.447904052734375000e+02,6.447904052734375000e+02,6.447880249023437500e+02,6.447880249023437500e+02,6.462163085937500000e+02,6.462163085937500000e+02,6.442947387695312500e+02,6.442947387695312500e+02,6.441555175781250000e+02,6.441555175781250000e+02,6.446497192382812500e+02,6.446497192382812500e+02,6.398100585937500000e+02,6.398100585937500000e+02
6.454640502929687500e+02,6.458381958007812500e+02,6.458381958007812500e+02,6.474978637695312500e+02,6.474978637695312500e+02,6.450729980468750000e+02,6.450729980468750000e+02,6.463258666992187500e+02,6.463258666992187500e+02,6.445227050781250000e+02,6.445227050781250000e+02,6.457059326171875000e+02,6.457059326171875000e+02,6.431356201171875000e+02,6.431356201171875000e+02,6.457666015625000000e+02,6.457666015625000000e+02,6.440319213867187500e+02,6.440319213867187500e+02,6.455921020507812500e+02,6.455921020507812500e+02,6.449345703125000000e+02,6.449345703125000000e+02,6.451680908203125000e+02,6.451680908203125000e+02,6.449036254882812500e+02,6.449036254882812500e+02,6.445505981445312500e+02,6.445505981445312500e+02,6.032143554687500000e+02,6.032143554687500000e+02,5.960339355468750000e+02,5.960339355468750000e+02,5.954321899414062500e+02,5.954321899414062500e+02,5.960651245117187500e+02,5.960651245117187500e+02,5.949191894531250000e+02,5.949191894531250000e+02,5.964754638671875000e+02,5.964754638671875000e+02,5.909210815429687500e+02,5.909210815429687500e+02,5.915591430664062500e+02,5.915591430664062500e+02,5.919388427734375000e+02,5.919388427734375000e+02,5.933326416015625000e+02,5.933326416015625000e+02,5.932052612304687500e+02,5.932052612304687500e+02,5.944445190429687500e+02,5.944445190429687500e+02,5.928335571289062500e+02,5.928335571289062500e+02,5.930579223632812500e+02,5.930579223632812500e+02,5.941677856445312500e+02,5.941677856445312500e+02,5.949598388671875000e+02,5.949598388671875000e+02,5.950020141601562500e+02,5.950020141601562500e+02,5.988570556640625000e+02,5.988570556640625000e+02,6.392638549804687500e+02,6.392638549804687500e+02,6.989058837890625000e+02,6.989058837890625000e+02,6.811415405273437500e+02,6.811415405273437500e+02,6.433520507812500000e+02,6.433520507812500000e+02,6.443162841796875000e+02,6.443162841796875000e+02,6.438800048828125000e+02,6.438800048828125000e+02,6.438599853515625000e+02,6.438599853515625000e+02,6.431449584960937500e+02,6.431449584960937500e+02,6.432158203125000000e+02,6.432158203125000000e+02,6.442564697265625000e+02,6.442564697265625000e+02,6.440219116210937500e+02,6.440219116210937500e+02,6.462949829101562500e+02,6.462949829101562500e+02,6.461767578125000000e+02,6.461767578125000000e+02,6.465904541015625000e+02,6.465904541015625000e+02,6.466677856445312500e+02,6.466677856445312500e+02,6.457832641601562500e+02,6.457832641601562500e+02,6.467666625976562500e+02,6.467666625976562500e+02,6.460715332031250000e+02,6.460715332031250000e+02,6.449836425781250000e+02,6.449836425781250000e+02,6.457611694335937500e+02,6.457611694335937500e+02,6.462407836914062500e+02,6.462407836914062500e+02,6.453928222656250000e+02,6.453928222656250000e+02,6.416811523437500000e+02,6.416811523437500000e+02,6.462769775390625000e+02,6.462769775390625000e+02,6.456596069335937500e+02,6.456596069335937500e+02,6.446467285156250000e+02,6.446467285156250000e+02,6.398100585937500000e+02,6.398100585937500000e+02
6.455405883789062500e+02,6.445764160156250000e+02,6.445764160156250000e+02,6.456576538085937500e+02,6.456576538085937500e+02,6.454642333984375000e+02,6.454642333984375000e+02,6.454704589843750000e+02,6.454704589843750000e+02,6.440048217773437500e+02,6.440048217773437500e+02,6.445990600585937500e+02,6.445990600585937500e+02,6.446403808593750000e+02,6.446403808593750000e+02,6.401914672851562500e+02,6.401914672851562500e+02,6.442792358398437500e+02,6.442792358398437500e+02,6.446113281250000000e+02,6.446113281250000000e+02,6.443843994140625000e+02,6.443843994140625000e+02,6.443585205078125000e+02,6.443585205078125000e+02,6.445715942382812500e+02,6.445715942382812500e+02,6.450243530273437500e+02,6.450243530273437500e+02,6.594678955078125000e+02,6.594678955078125000e+02,5.958335571289062500e+02,5.958335571289062500e+02,5.956423339843750000e+02,5.956423339843750000e+02,5.947399902343750000e+02,5.947399902343750000e+02,5.946392822265625000e+02,5.946392822265625000e+02,5.934916992187500000e+02,5.934916992187500000e+02,5.919917602539062500e+02,5.919917602539062500e+02,5.913225708007812500e+02,5.913225708007812500e+02,5.920584106445312500e+02,5.920584106445312500e+02,5.928925170898437500e+02,5.928925170898437500e+02,5.934517211914062500e+02,5.934517211914062500e+02,5.936878051757812500e+02,5.936878051757812500e+02,5.930127563476562500e+02,5.930127563476562500e+02,5.933270263671875000e+02,5.933270263671875000e+02,5.931700439453125000e+02,5.931700439453125000e+02,5.945203247070312500e+02,5.945203247070312500e+02,5.943735351562500000e+02,5.943735351562500000e+02,5.986587524414062500e+02,5.986587524414062500e+02,6.436666259765625000e+02,6.436666259765625000e+02,6.536253051757812500e+02,6.536253051757812500e+02,1.032253173828125000e+03,1.032253173828125000e+03,6.446166992187500000e+02,6.446166992187500000e+02,6.440832519531250000e+02,6.440832519531250000e+02,6.445347290039062500e+02,6.445347290039062500e+02,6.440320434570312500e+02,6.440320434570312500e+02,6.445318603515625000e+02,6.445318603515625000e+02,6.429288330078125000e+02,6.429288330078125000e+02,6.445343017578125000e+02,6.445343017578125000e+02,6.445186157226562500e+02,6.445186157226562500e+02,6.454743652343750000e+02,6.454743652343750000e+02,6.456430664062500000e+02,6.456430664062500000e+02,6.451624755859375000e+02,6.451624755859375000e+02,6.452832031250000000e+02,6.452832031250000000e+02,6.456885986328125000e+02,6.456885986328125000e+02,6.453265380859375000e+02,6.453265380859375000e+02,6.471019287109375000e+02,6.471019287109375000e+02,6.461124267578125000e+02,6.461124267578125000e+02,6.457246704101562500e+02,6.457246704101562500e+02,6.467714233398437500e+02,6.467714233398437500e+02,6.467547607421875000e+02,6.467547607421875000e+02,6.461938476562500000e+02,6.461938476562500000e+02,6.447593994140625000e+02,6.447593994140625000e+02,6.448600463867187500e+02,6.448600463867187500e+02,6.452674560546875000e+02,6.452674560546875000e+02,6.398100585937500000e+02,6.398100585937500000e+02
6.444664306640625000e+02,6.454570922851562500e+02,6.454570922851562500e+02,6.454620361328125000e+02,6.454620361328125000e+02,6.442523803710937500e+02,6.442523803710937500e+02,6.449603271484375000e+02,6.449603271484375000e+02,6.442894287109375000e+02,6.442894287109375000e+02,6.447944335937500000e+02,6.447944335937500000e+02,6.441358642578125000e+02,6.441358642578125000e+02,6.443923339843750000e+02,6.443923339843750000e+02,6.432413940429687500e+02,6.432413940429687500e+02,6.451406860351562500e+02,6.451406860351562500e+02,6.436971435546875000e+02,6.436971435546875000e+02,6.445946655273437500e+02,6.445946655273437500e+02,6.446521606445312500e+02,6.446521606445312500e+02,6.449349975585937500e+02,6.449349975585937500e+02,6.642974853515625000e+02,6.642974853515625000e+02,5.970262451171875000e+02,5.970262451171875000e+02,5.960903320312500000e+02,5.960903320312500000e+02,5.959144897460937500e+02,5.959144897460937500e+02,5.947167968750000000e+02,5.947167968750000000e+02,5.960682983398437500e+02,5.960682983398437500e+02,5.904093017578125000e+02,5.904093017578125000e+02,5.913925170898437500e+02,5.913925170898437500e+02,5.925117797851562500e+02,5.925117797851562500e+02,5.918153076171875000e+02,5.918153076171875000e+02,5.927764282226562500e+02,5.927764282226562500e+02,5.928439941406250000e+02,5.928439941406250000e+02,5.934514770507812500e+02,5.934514770507812500e+02,5.932435913085937500e+02,5.932435913085937500e+02,5.939414672851562500e+02,5.939414672851562500e+02,5.943973999023437500e+02,5.943973999023437500e+02,5.945216064453125000e+02,5.945216064453125000e+02,5.994739379882812500e+02,5.994739379882812500e+02,6.431012573242187500e+02,6.431012573242187500e+02,6.113169555664062500e+02,6.113169555664062500e+02,6.561409301757812500e+02,6.561409301757812500e+02,6.433943481445312500e+02,6.433943481445312500e+02,6.441010131835937500e+02,6.441010131835937500e+02,6.449700927734375000e+02,6.449700927734375000e+02,6.437739257812500000e+02,6.437739257812500000e+02,6.438840942382812500e+02,6.438840942382812500e+02,6.445122070312500000e+02,6.445122070312500000e+02,6.462110595703125000e+02,6.462110595703125000e+02,6.458129882812500000e+02,6.458129882812500000e+02,6.463358154296875000e+02,6.463358154296875000e+02,6.447595214843750000e+02,6.447595214843750000e+02,6.462218017578125000e+02,6.462218017578125000e+02,6.433502807617187500e+02,6.433502807617187500e+02,6.443697509765625000e+02,6.443697509765625000e+02,6.452157592773437500e+02,6.452157592773437500e+02,6.439844970703125000e+02,6.439844970703125000e+02,6.443458251953125000e+02,6.443458251953125000e+02,6.448739013671875000e+02,6.448739013671875000e+02,6.460344238281250000e+02,6.460344238281250000e+02,6.462692871093750000e+02,6.462692871093750000e+02,6.459971313476562500e+02,6.459971313476562500e+02,6.444622802734375000e+02,6.444622802734375000e+02,6.466311645507812500e+02,6.466311645507812500e+02,6.451775512695312500e+02,6.451775512695312500e+02,6.398100585937500000e+02,6.398100585937500000e+02
6.446586303710937500e+02,6.452775878906250000e+02,6.452775878906250000e+02,6.442905273437500000e+02,6.442905273437500000e+02,6.445006713867187500e+02,6.445006713867187500e+02,6.451472778320312500e+02,6.451472778320312500e+02,6.452714843750000000e+02,6.452714843750000000e+02,6.435538940429687500e+02,6.435538940429687500e+02,6.440578002929687500e+02,6.440578002929687500e+02,6.443895263671875000e+02,6.443895263671875000e+02,6.438867187500000000e+02,6.438867187500000000e+02,6.439514160156250000e+02,6.439514160156250000e+02,6.443795776367187500e+02,6.443795776367187500e+02,6.437951660156250000e+02,6.437951660156250000e+02,6.436605224609375000e+02,6.436605224609375000e+02,6.449671020507812500e+02,6.449671020507812500e+02,6.572208251953125000e+02,6.572208251953125000e+02,5.989642333984375000e+02,5.989642333984375000e+02,5.953826293945312500e+02,5.953826293945312500e+02,5.948691406250000000e+02,5.948691406250000000e+02,5.939357910156250000e+02,5.939357910156250000e+02,5.936176757812500000e+02,5.936176757812500000e+02,5.912744750976562500e+02,5.912744750976562500e+02,5.908355102539062500e+02,5.908355102539062500e+02,5.922611083984375000e+02,5.922611083984375000e+02,5.942399291992187500e+02,5.942399291992187500e+02,5.917195434570312500e+02,5.917195434570312500e+02,5.921147460937500000e+02,5.921147460937500000e+02,5.926032714843750000e+02,5.926032714843750000e+02,5.933758544921875000e+02,5.933758544921875000e+02,5.920728759765625000e+02,5.920728759765625000e+02,5.946365966796875000e+02,5.946365966796875000e+02,5.959423217773437500e+02,5.959423217773437500e+02,5.980867919921875000e+02,5.980867919921875000e+02,6.424197387695312500e+02,6.424197387695312500e+02,6.910472412109375000e+02,6.910472412109375000e+02,6.510913085937500000e+02,6.510913085937500000e+02,6.432855834960937500e+02,6.432855834960937500e+02,6.428389282226562500e+02,6.428389282226562500e+02,6.430438842773437500e+02,6.430438842773437500e+02,6.452103881835937500e+02,6.452103881835937500e+02,6.428972778320312500e+02,6.428972778320312500e+02,6.449300537109375000e+02,6.449300537109375000e+02,6.448658447265625000e+02,6.448658447265625000e+02,6.445867309570312500e+02,6.445867309570312500e+02,6.436970825195312500e+02,6.436970825195312500e+02,6.443370361328125000e+02,6.443370361328125000e+02,6.440944824218750000e+02,6.440944824218750000e+02,6.454777221679687500e+02,6.454777221679687500e+02,6.442313232421875000e+02,6.442313232421875000e+02,6.436710205078125000e+02,6.436710205078125000e+02,6.452962646484375000e+02,6.452962646484375000e+02,6.474934082031250000e+02,6.474934082031250000e+02,6.447791748046875000e+02,6.447791748046875000e+02,6.467834472656250000e+02,6.467834472656250000e+02,6.450460205078125000e+02,6.450460205078125000e+02,6.458034667968750000e+02,6.458034667968750000e+02,6.499786987304687500e+02,6.499786987304687500e+02,6.448476562500000000e+02,6.448476562500000000e+02,6.465964965820312500e+02,6.465964965820312500e+02,6.398100585937500000e+02,6.398100585937500000e+02
6.459373779296875000e+02,6.432747802734375000e+02,6.432747802734375000e+02,6.463262329101562500e+02,6.463262329101562500e+02,6.458543090820312500e+02,6.458543090820312500e+02,6.450132446289062500e+02,6.450132446289062500e+02,6.459251708984375000e+02,6.459251708984375000e+02,6.467952270507812500e+02,6.467952270507812500e+02,6.449447021484375000e+02,6.449447021484375000e+02,6.451124877929687500e+02,6.451124877929687500e+02,6.442609863281250000e+02,6.442609863281250000e+02,6.419536743164062500e+02,6.419536743164062500e+02,6.435616455078125000e+02,6.435616455078125000e+02,6.444411621093750000e+02,6.444411621093750000e+02,6.439919433593750000e+02,6.439919433593750000e+02,6.452237548828125000e+02,6.452237548828125000e+02,6.608754272460937500e+02,6.608754272460937500e+02,5.960176391601562500e+02,5.960176391601562500e+02,5.947420043945312500e+02,5.947420043945312500e+02,5.948307495117187500e+02,5.948307495117187500e+02,5.924140625000000000e+02,5.924140625000000000e+02,5.919122924804687500e+02,5.919122924804687500e+02,5.897937622070312500e+02,5.897937622070312500e+02,5.905001831054687500e+02,5.905001831054687500e+02,5.916271362304687500e+02,5.916271362304687500e+02,5.909313964843750000e+02,5.909313964843750000e+02,5.910794067382812500e+02,5.910794067382812500e+02,5.912240600585937500e+02,5.912240600585937500e+02,5.912314453125000000e+02,5.912314453125000000e+02,5.916043090820312500e+02,5.916043090820312500e+02,5.914497680664062500e+02,5.914497680664062500e+02,5.920991821289062500e+02,5.920991821289062500e+02,5.952969970703125000e+02,5.952969970703125000e+02,5.963532104492187500e+02,5.963532104492187500e+02,6.156181640625000000e+02,6.156181640625000000e+02,1.049102905273437500e+03,1.049102905273437500e+03,6.505594482421875000e+02,6.505594482421875000e+02,6.454085693359375000e+02,6.454085693359375000e+02,6.446488037109375000e+02,6.446488037109375000e+02,6.460711059570312500e+02,6.460711059570312500e+02,6.443496704101562500e+02,6.443496704101562500e+02,6.439101562500000000e+02,6.439101562500000000e+02,6.439625854492187500e+02,6.439625854492187500e+02,6.450816650390625000e+02,6.450816650390625000e+02,6.438208618164062500e+02,6.438208618164062500e+02,6.439553222656250000e+02,6.439553222656250000e+02,6.431221923828125000e+02,6.431221923828125000e+02,6.449487915039062500e+02,6.449487915039062500e+02,6.449384155273437500e+02,6.449384155273437500e+02,6.438577270507812500e+02,6.438577270507812500e+02,6.405910034179687500e+02,6.405910034179687500e+02,6.458253784179687500e+02,6.458253784179687500e+02,6.463322753906250000e+02,6.463322753906250000e+02,6.472033691406250000e+02,6.472033691406250000e+02,6.446361694335937500e+02,6.446361694335937500e+02,6.465480346679687500e+02,6.465480346679687500e+02,6.420421752929687500e+02,6.420421752929687500e+02,6.440616455078125000e+02,6.440616455078125000e+02,6.452422485351562500e+02,6.452422485351562500e+02,6.440344238281250000e+02,6.440344238281250000e+02,6.398100585937500000e+02,6.398100585937500000e+02
6.451136474609375000e+02,6.324518432617187500e+02,6.324518432617187500e+02,6.462509155273437500e+02,6.462509155273437500e+02,6.454953613281250000e+02,6.454953613281250000e+02,6.459716186523437500e+02,6.459716186523437500e+02,6.454945678710937500e+02,6.454945678710937500e+02,6.464092407226562500e+02,6.464092407226562500e+02,6.446992187500000000e+02,6.446992187500000000e+02,6.453436279296875000e+02,6.453436279296875000e+02,6.425468139648437500e+02,6.425468139648437500e+02,6.438366699218750000e+02,6.438366699218750000e+02,6.434330444335937500e+02,6.434330444335937500e+02,6.436635742187500000e+02,6.436635742187500000e+02,6.447873535156250000e+02,6.447873535156250000e+02,6.448315429687500000e+02,6.448315429687500000e+02,6.530570068359375000e+02,6.530570068359375000e+02,6.038117675781250000e+02,6.038117675781250000e+02,5.954077758789062500e+02,5.954077758789062500e+02,5.937363281250000000e+02,5.937363281250000000e+02,5.936958618164062500e+02,5.936958618164062500e+02,5.928280639648437500e+02,5.928280639648437500e+02,5.925667114257812500e+02,5.925667114257812500e+02,5.901800537109375000e+02,5.901800537109375000e+02,5.914523315429687500e+02,5.914523315429687500e+02,5.927739868164062500e+02,5.927739868164062500e+02,5.884537353515625000e+02,5.884537353515625000e+02,5.911237182617187500e+02,5.911237182617187500e+02,5.914862060546875000e+02,5.914862060546875000e+02,5.912914428710937500e+02,5.912914428710937500e+02,5.901864013671875000e+02,5.901864013671875000e+02,5.918369140625000000e+02,5.918369140625000000e+02,5.943972167968750000e+02,5.943972167968750000e+02,5.979816284179687500e+02,5.979816284179687500e+02,6.146298217773437500e+02,6.146298217773437500e+02,6.848009643554687500e+02,6.848009643554687500e+02,6.466807250976562500e+02,6.466807250976562500e+02,6.442793579101562500e+02,6.442793579101562500e+02,6.440639038085937500e+02,6.440639038085937500e+02,6.442427368164062500e+02,6.442427368164062500e+02,6.443865356445312500e+02,6.443865356445312500e+02,6.441865844726562500e+02,6.441865844726562500e+02,6.446442871093750000e+02,6.446442871093750000e+02,6.440608520507812500e+02,6.440608520507812500e+02,6.431453247070312500e+02,6.431453247070312500e+02,6.443841552734375000e+02,6.443841552734375000e+02,6.420668945312500000e+02,6.420668945312500000e+02,6.457246093750000000e+02,6.457246093750000000e+02,6.472552490234375000e+02,6.472552490234375000e+02,6.434721069335937500e+02,6.434721069335937500e+02,6.464597778320312500e+02,6.464597778320312500e+02,6.461557617187500000e+02,6.461557617187500000e+02,6.460778198242187500e+02,6.460778198242187500e+02,6.452292480468750000e+02,6.452292480468750000e+02,6.455573120117187500e+02,6.455573120117187500e+02,6.437906494140625000e+02,6.437906494140625000e+02,6.455415039062500000e+02,6.455415039062500000e+02,6.460836181640625000e+02,6.460836181640625000e+02,6.414188842773437500e+02,6.414188842773437500e+02,6.414742431640625000e+02,6.414742431640625000e+02,6.398100585937500000e+02,6.398100585937500000e+02
6.436229858398437500e+02,6.456962890625000000e+02,6.456962890625000000e+02,6.461378784179687500e+02,6.461378784179687500e+02,6.451269531250000000e+02,6.451269531250000000e+02,6.457492675781250000e+02,6.457492675781250000e+02,6.470884399414062500e+02,6.470884399414062500e+02,6.453663330078125000e+02,6.453663330078125000e+02,6.467991943359375000e+02,6.467991943359375000e+02,6.459183959960937500e+02,6.459183959960937500e+02,6.439550170898437500e+02,6.439550170898437500e+02,6.438280639648437500e+02,6.438280639648437500e+02,6.430404663085937500e+02,6.430404663085937500e+02,6.436885375976562500e+02,6.436885375976562500e+02,6.441713867187500000e+02,6.441713867187500000e+02,6.442509765625000000e+02,6.442509765625000000e+02,1.050692504882812500e+03,1.050692504882812500e+03,6.028795776367187500e+02,6.028795776367187500e+02,5.943074340820312500e+02,5.943074340820312500e+02,5.931925659179687500e+02,5.931925659179687500e+02,5.934625854492187500e+02,5.934625854492187500e+02,5.927075195312500000e+02,5.927075195312500000e+02,5.933656005859375000e+02,5.933656005859375000e+02,5.925171508789062500e+02,5.925171508789062500e+02,5.908056030273437500e+02,5.908056030273437500e+02,5.919991455078125000e+02,5.919991455078125000e+02,5.909524536132812500e+02,5.909524536132812500e+02,5.918286132812500000e+02,5.918286132812500000e+02,5.913334350585937500e+02,5.913334350585937500e+02,5.908901977539062500e+02,5.908901977539062500e+02,5.917001953125000000e+02,5.917001953125000000e+02,5.921457519531250000e+02,5.921457519531250000e+02,5.944672851562500000e+02,5.944672851562500000e+02,5.980073852539062500e+02,5.980073852539062500e+02,6.116098022460937500e+02,6.116098022460937500e+02,6.105145263671875000e+02,6.105145263671875000e+02,6.445781860351562500e+02,6.445781860351562500e+02,6.443997192382812500e+02,6.443997192382812500e+02,6.448654785156250000e+02,6.448654785156250000e+02,6.446140136718750000e+02,6.446140136718750000e+02,6.437325439453125000e+02,6.437325439453125000e+02,6.443695678710937500e+02,6.443695678710937500e+02,6.442285766601562500e+02,6.442285766601562500e+02,6.437749023437500000e+02,6.437749023437500000e+02,6.435166015625000000e+02,6.435166015625000000e+02,6.439550170898437500e+02,6.439550170898437500e+02,6.452187500000000000e+02,6.452187500000000000e+02,6.441729736328125000e+02,6.441729736328125000e+02,6.466680908203125000e+02,6.466680908203125000e+02,6.461590576171875000e+02,6.461590576171875000e+02,6.463695678710937500e+02,6.463695678710937500e+02,6.459459838867187500e+02,6.459459838867187500e+02,6.453720092773437500e+02,6.453720092773437500e+02,6.456834106445312500e+02,6.456834106445312500e+02,6.463014526367187500e+02,6.463014526367187500e+02,6.458266601562500000e+02,6.458266601562500000e+02,6.438229980468750000e+02,6.438229980468750000e+02,6.445834960937500000e+02,6.445834960937500000e+02,6.439570922851562500e+02,6.439570922851562500e+02,6.447070312500000000e+02,6.447070312500000000e+02,6.398100585937500000e+02,6.398100585937500000e+02
6.454994506835937500e+02,6.456196289062500000e+02,6.456196289062500000e+02,6.457455444335937500e+02,6.457455444335937500e+02,6.465888061523437500e+02,6.465888061523437500e+02,6.464492187500000000e+02,6.464492187500000000e+02,6.464311523437500000e+02,6.464311523437500000e+02,6.449736938476562500e+02,6.449736938476562500e+02,6.448390502929687500e+02,6.448390502929687500e+02,6.453093261718750000e+02,6.453093261718750000e+02,6.445996704101562500e+02,6.445996704101562500e+02,6.439481201171875000e+02,6.439481201171875000e+02,6.433036499023437500e+02,6.433036499023437500e+02,6.430029907226562500e+02,6.430029907226562500e+02,6.433315429687500000e+02,6.433315429687500000e+02,6.445106201171875000e+02,6.445106201171875000e+02,6.647930908203125000e+02,6.647930908203125000e+02,6.028745117187500000e+02,6.028745117187500000e+02,5.955338134765625000e+02,5.955338134765625000e+02,5.930491333007812500e+02,5.930491333007812500e+02,5.918488769531250000e+02,5.918488769531250000e+02,5.913421020507812500e+02,5.913421020507812500e+02,5.924432983398437500e+02,5.924432983398437500e+02,5.919560546875000000e+02,5.919560546875000000e+02,5.907318115234375000e+02,5.907318115234375000e+02,5.910742797851562500e+02,5.910742797851562500e+02,5.907973022460937500e+02,5.907973022460937500e+02,5.912745361328125000e+02,5.912745361328125000e+02,5.916010131835937500e+02,5.916010131835937500e+02,5.906986694335937500e+02,5.906986694335937500e+02,5.912543334960937500e+02,5.912543334960937500e+02,5.925639038085937500e+02,5.925639038085937500e+02,5.944949951171875000e+02,5.944949951171875000e+02,5.977621459960937500e+02,5.977621459960937500e+02,6.115253906250000000e+02,6.115253906250000000e+02,6.499614868164062500e+02,6.499614868164062500e+02,6.452154541015625000e+02,6.452154541015625000e+02,6.436492919921875000e+02,6.436492919921875000e+02,6.440089721679687500e+02,6.440089721679687500e+02,6.432562866210937500e+02,6.432562866210937500e+02,6.444043579101562500e+02,6.444043579101562500e+02,6.440151367187500000e+02,6.440151367187500000e+02,6.425947875976562500e+02,6.425947875976562500e+02,6.436076660156250000e+02,6.436076660156250000e+02,6.438616333007812500e+02,6.438616333007812500e+02,6.440169677734375000e+02,6.440169677734375000e+02,6.434515991210937500e+02,6.434515991210937500e+02,6.433153686523437500e+02,6.433153686523437500e+02,6.463859863281250000e+02,6.463859863281250000e+02,6.457369995117187500e+02,6.457369995117187500e+02,6.457073974609375000e+02,6.457073974609375000e+02,6.454525146484375000e+02,6.454525146484375000e+02,6.461232299804687500e+02,6.461232299804687500e+02,6.458066406250000000e+02,6.458066406250000000e+02,6.461189575195312500e+02,6.461189575195312500e+02,6.443206787109375000e+02,6.443206787109375000e+02,6.443821411132812500e+02,6.443821411132812500e+02,6.452572631835937500e+02,6.452572631835937500e+02,6.448222045898437500e+02,6.448222045898437500e+02,6.449790039062500000e+02,6.449790039062500000e+02,6.398100585937500000e+02,6.398100585937500000e+02
6.453512573242187500e+02,6.455339965820312500e+02,6.455339965820312500e+02,6.467023315429687500e+02,6.467023315429687500e+02,6.466499633789062500e+02,6.466499633789062500e+02,6.430688476562500000e+02,6.430688476562500000e+02,6.441387939453125000e+02,6.441387939453125000e+02,6.449966430664062500e+02,6.449966430664062500e+02,6.475460815429687500e+02,6.475460815429687500e+02,6.449622802734375000e+02,6.449622802734375000e+02,6.439863891601562500e+02,6.439863891601562500e+02,6.425519409179687500e+02,6.425519409179687500e+02,6.453024902343750000e+02,6.453024902343750000e+02,6.423397827148437500e+02,6.423397827148437500e+02,6.455853271484375000e+02,6.455853271484375000e+02,6.436986083984375000e+02,6.436986083984375000e+02,6.547866210937500000e+02,6.547866210937500000e+02,6.516777343750000000e+02,6.516777343750000000e+02,5.968080444335937500e+02,5.968080444335937500e+02,5.963546752929687500e+02,5.963546752929687500e+02,5.958405151367187500e+02,5.958405151367187500e+02,5.966130981445312500e+02,5.966130981445312500e+02,5.955667724609375000e+02,5.955667724609375000e+02,5.950637207031250000e+02,5.950637207031250000e+02,5.935744628906250000e+02,5.935744628906250000e+02,5.950997314453125000e+02,5.950997314453125000e+02,5.939154052734375000e+02,5.939154052734375000e+02,5.958323364257812500e+02,5.958323364257812500e+02,5.937897338867187500e+02,5.937897338867187500e+02,5.948854370117187500e+02,5.948854370117187500e+02,5.958112182617187500e+02,5.958112182617187500e+02,5.951981201171875000e+02,5.951981201171875000e+02,5.985643310546875000e+02,5.985643310546875000e+02,6.039838256835937500e+02,6.039838256835937500e+02,6.195656127929687500e+02,6.195656127929687500e+02,6.425891113281250000e+02,6.425891113281250000e+02,6.434754028320312500e+02,6.434754028320312500e+02,6.446806640625000000e+02,6.446806640625000000e+02,6.435472412109375000e+02,6.435472412109375000e+02,6.446579589843750000e+02,6.446579589843750000e+02,6.429992065429687500e+02,6.429992065429687500e+02,6.423208007812500000e+02,6.423208007812500000e+02,6.437623901367187500e+02,6.437623901367187500e+02,6.427384643554687500e+02,6.427384643554687500e+02,6.428450927734375000e+02,6.428450927734375000e+02,6.441362304687500000e+02,6.441362304687500000e+02,6.429968872070312500e+02,6.429968872070312500e+02,6.428405151367187500e+02,6.428405151367187500e+02,6.449679565429687500e+02,6.449679565429687500e+02,6.435952758789062500e+02,6.435952758789062500e+02,6.437009887695312500e+02,6.437009887695312500e+02,6.470093383789062500e+02,6.470093383789062500e+02,6.470823364257812500e+02,6.470823364257812500e+02,6.473197021484375000e+02,6.473197021484375000e+02,6.472922973632812500e+02,6.472922973632812500e+02,6.456740722656250000e+02,6.456740722656250000e+02,6.450371704101562500e+02,6.450371704101562500e+02,6.448952636718750000e+02,6.448952636718750000e+02,6.428181762695312500e+02,6.428181762695312500e+02,6.428512573242187500e+02,6.428512573242187500e+02,6.398100585937500000e+02,6.398100585937500000e+02
6.449157104492187500e+02,6.440410766601562500e+02,6.440410766601562500e+02,6.472098999023437500e+02,6.472098999023437500e+02,6.453009033203125000e+02,6.453009033203125000e+02,6.457100830078125000e+02,6.457100830078125000e+02,6.458059692382812500e+02,6.458059692382812500e+02,6.444095458984375000e+02,6.444095458984375000e+02,6.465474243164062500e+02,6.465474243164062500e+02,6.443183593750000000e+02,6.443183593750000000e+02,6.450898437500000000e+02,6.450898437500000000e+02,6.425497436523437500e+02,6.425497436523437500e+02,6.424593505859375000e+02,6.424593505859375000e+02,6.435078125000000000e+02,6.435078125000000000e+02,6.435432739257812500e+02,6.435432739257812500e+02,6.440055541992187500e+02,6.440055541992187500e+02,6.553246459960937500e+02,6.553246459960937500e+02,6.115392456054687500e+02,6.115392456054687500e+02,5.938846435546875000e+02,5.938846435546875000e+02,5.967116088867187500e+02,5.967116088867187500e+02,5.967324218750000000e+02,5.967324218750000000e+02,5.955111083984375000e+02,5.955111083984375000e+02,5.954337768554687500e+02,5.954337768554687500e+02,5.940418701171875000e+02,5.940418701171875000e+02,5.934193115234375000e+02,5.934193115234375000e+02,5.946779785156250000e+02,5.946779785156250000e+02,5.936077270507812500e+02,5.936077270507812500e+02,5.956477050781250000e+02,5.956477050781250000e+02,5.952122192382812500e+02,5.952122192382812500e+02,5.941154174804687500e+02,5.941154174804687500e+02,5.956135864257812500e+02,5.956135864257812500e+02,5.957446289062500000e+02,5.957446289062500000e+02,5.983752441406250000e+02,5.983752441406250000e+02,6.093171997070312500e+02,6.093171997070312500e+02,6.189922485351562500e+02,6.189922485351562500e+02,6.449692382812500000e+02,6.449692382812500000e+02,6.440407104492187500e+02,6.440407104492187500e+02,6.446119995117187500e+02,6.446119995117187500e+02,6.390029907226562500e+02,6.390029907226562500e+02,6.435899658203125000e+02,6.435899658203125000e+02,6.455349731445312500e+02,6.455349731445312500e+02,6.421588745117187500e+02,6.421588745117187500e+02,6.433140869140625000e+02,6.433140869140625000e+02,6.423184814453125000e+02,6.423184814453125000e+02,6.437778320312500000e+02,6.437778320312500000e+02,6.440080566406250000e+02,6.440080566406250000e+02,6.432042236328125000e+02,6.432042236328125000e+02,6.442735595703125000e+02,6.442735595703125000e+02,6.441102905273437500e+02,6.441102905273437500e+02,6.466010131835937500e+02,6.466010131835937500e+02,6.473807373046875000e+02,6.473807373046875000e+02,6.451450805664062500e+02,6.451450805664062500e+02,6.409025878906250000e+02,6.409025878906250000e+02,6.466715698242187500e+02,6.466715698242187500e+02,6.464183349609375000e+02,6.464183349609375000e+02,6.464609375000000000e+02,6.464609375000000000e+02,6.461140136718750000e+02,6.461140136718750000e+02,6.438273315429687500e+02,6.438273315429687500e+02,6.469631958007812500e+02,6.469631958007812500e+02,6.420435791015625000e+02,6.420435791015625000e+02,6.398100585937500000e+02,6.398100585937500000e+02
6.456158447265625000e+02,6.452974853515625000e+02,6.452974853515625000e+02,6.453262329101562500e+02,6.453262329101562500e+02,6.432747802734375000e+02,6.432747802734375000e+02,6.441885375976562500e+02,6.441885375976562500e+02,6.454891967773437500e+02,6.454891967773437500e+02,6.464072265625000000e+02,6.464072265625000000e+02,6.455421142578125000e+02,6.455421142578125000e+02,6.470823974609375000e+02,6.470823974609375000e+02,6.425709228515625000e+02,6.425709228515625000e+02,6.453822021484375000e+02,6.453822021484375000e+02,6.419279174804687500e+02,6.419279174804687500e+02,6.424814453125000000e+02,6.424814453125000000e+02,6.431131591796875000e+02,6.431131591796875000e+02,6.436926879882812500e+02,6.436926879882812500e+02,6.543367309570312500e+02,6.543367309570312500e+02,6.569959716796875000e+02,6.569959716796875000e+02,6.013776245117187500e+02,6.013776245117187500e+02,5.972465209960937500e+02,5.972465209960937500e+02,5.958891601562500000e+02,5.958891601562500000e+02,5.963919677734375000e+02,5.963919677734375000e+02,5.953485107421875000e+02,5.953485107421875000e+02,5.946517333984375000e+02,5.946517333984375000e+02,5.942470092773437500e+02,5.942470092773437500e+02,5.947418212890625000e+02,5.947418212890625000e+02,5.947784423828125000e+02,5.947784423828125000e+02,5.964435424804687500e+02,5.964435424804687500e+02,5.957706909179687500e+02,5.957706909179687500e+02,5.945844726562500000e+02,5.945844726562500000e+02,5.956724243164062500e+02,5.956724243164062500e+02,5.969500732421875000e+02,5.969500732421875000e+02,5.986441650390625000e+02,5.986441650390625000e+02,6.151068725585937500e+02,6.151068725585937500e+02,6.193119506835937500e+02,6.193119506835937500e+02,6.432653808593750000e+02,6.432653808593750000e+02,6.443615722656250000e+02,6.443615722656250000e+02,6.443387451171875000e+02,6.443387451171875000e+02,6.449570312500000000e+02,6.449570312500000000e+02,6.423259277343750000e+02,6.423259277343750000e+02,6.439478759765625000e+02,6.439478759765625000e+02,6.413040771484375000e+02,6.413040771484375000e+02,6.428458862304687500e+02,6.428458862304687500e+02,6.419282226562500000e+02,6.419282226562500000e+02,6.452966308593750000e+02,6.452966308593750000e+02,6.422818603515625000e+02,6.422818603515625000e+02,6.446636352539062500e+02,6.446636352539062500e+02,6.431780395507812500e+02,6.431780395507812500e+02,6.465122680664062500e+02,6.465122680664062500e+02,6.445416259765625000e+02,6.445416259765625000e+02,6.465341796875000000e+02,6.465341796875000000e+02,6.467592773437500000e+02,6.467592773437500000e+02,6.466195068359375000e+02,6.466195068359375000e+02,6.457150268554687500e+02,6.457150268554687500e+02,6.435811767578125000e+02,6.435811767578125000e+02,6.455394287109375000e+02,6.455394287109375000e+02,6.458639526367187500e+02,6.458639526367187500e+02,6.458813476562500000e+02,6.458813476562500000e+02,6.451613159179687500e+02,6.451613159179687500e+02,6.421829223632812500e+02,6.421829223632812500e+02,6.398100585937500000e+02,6.398100585937500000e+02
6.443670043945312500e+02,6.447565917968750000e+02,6.447565917968750000e+02,6.459347534179687500e+02,6.459347534179687500e+02,6.468967895507812500e+02,6.468967895507812500e+02,6.453917236328125000e+02,6.453917236328125000e+02,6.451651000976562500e+02,6.451651000976562500e+02,6.430951538085937500e+02,6.430951538085937500e+02,6.457651977539062500e+02,6.457651977539062500e+02,6.441072998046875000e+02,6.441072998046875000e+02,6.417215576171875000e+02,6.417215576171875000e+02,6.432740478515625000e+02,6.432740478515625000e+02,6.424373779296875000e+02,6.424373779296875000e+02,6.429459228515625000e+02,6.429459228515625000e+02,6.437431640625000000e+02,6.437431640625000000e+02,6.428607788085937500e+02,6.428607788085937500e+02,6.516913452148437500e+02,6.516913452148437500e+02,6.550281982421875000e+02,6.550281982421875000e+02,6.091499633789062500e+02,6.091499633789062500e+02,5.959750366210937500e+02,5.959750366210937500e+02,5.957504272460937500e+02,5.957504272460937500e+02,5.965382080078125000e+02,5.965382080078125000e+02,5.949929199218750000e+02,5.949929199218750000e+02,5.949744873046875000e+02,5.949744873046875000e+02,5.938195190429687500e+02,5.938195190429687500e+02,5.940089111328125000e+02,5.940089111328125000e+02,5.951153564453125000e+02,5.951153564453125000e+02,5.950390625000000000e+02,5.950390625000000000e+02,5.974550781250000000e+02,5.974550781250000000e+02,5.961229248046875000e+02,5.961229248046875000e+02,5.958901367187500000e+02,5.958901367187500000e+02,5.965668945312500000e+02,5.965668945312500000e+02,5.981776733398437500e+02,5.981776733398437500e+02,6.144942626953125000e+02,6.144942626953125000e+02,6.202468872070312500e+02,6.202468872070312500e+02,6.424062500000000000e+02,6.424062500000000000e+02,6.414923706054687500e+02,6.414923706054687500e+02,6.456032104492187500e+02,6.456032104492187500e+02,6.462957763671875000e+02,6.462957763671875000e+02,6.422625122070312500e+02,6.422625122070312500e+02,6.431231079101562500e+02,6.431231079101562500e+02,6.419573364257812500e+02,6.419573364257812500e+02,6.431541137695312500e+02,6.431541137695312500e+02,6.432572631835937500e+02,6.432572631835937500e+02,6.448643188476562500e+02,6.448643188476562500e+02,6.449780273437500000e+02,6.449780273437500000e+02,6.439540405273437500e+02,6.439540405273437500e+02,6.451359863281250000e+02,6.451359863281250000e+02,6.450850830078125000e+02,6.450850830078125000e+02,6.447697143554687500e+02,6.447697143554687500e+02,6.459571533203125000e+02,6.459571533203125000e+02,6.468150024414062500e+02,6.468150024414062500e+02,6.458616943359375000e+02,6.458616943359375000e+02,6.462148437500000000e+02,6.462148437500000000e+02,6.450511474609375000e+02,6.450511474609375000e+02,6.471790771484375000e+02,6.471790771484375000e+02,6.443165893554687500e+02,6.443165893554687500e+02,6.425186157226562500e+02,6.425186157226562500e+02,6.455111083984375000e+02,6.455111083984375000e+02,6.449368286132812500e+02,6.449368286132812500e+02,6.398100585937500000e+02,6.398100585937500000e+02
6.438424072265625000e+02,6.448320922851562500e+02,6.448320922851562500e+02,6.443352661132812500e+02,6.443352661132812500e+02,6.455057983398437500e+02,6.455057983398437500e+02,6.470112915039062500e+02,6.470112915039062500e+02,6.435710449218750000e+02,6.435710449218750000e+02,6.471105346679687500e+02,6.471105346679687500e+02,6.443759155273437500e+02,6.443759155273437500e+02,6.456116333007812500e+02,6.456116333007812500e+02,6.430349121093750000e+02,6.430349121093750000e+02,6.434624023437500000e+02,6.434624023437500000e+02,6.456453247070312500e+02,6.456453247070312500e+02,6.440111083984375000e+02,6.440111083984375000e+02,6.444203491210937500e+02,6.444203491210937500e+02,6.444515991210937500e+02,6.444515991210937500e+02,6.442639160156250000e+02,6.442639160156250000e+02,6.783869018554687500e+02,6.783869018554687500e+02,6.082879028320312500e+02,6.082879028320312500e+02,5.960782470703125000e+02,5.960782470703125000e+02,5.949690551757812500e+02,5.949690551757812500e+02,5.957089233398437500e+02,5.957089233398437500e+02,5.957864990234375000e+02,5.957864990234375000e+02,5.948602294921875000e+02,5.948602294921875000e+02,5.936320190429687500e+02,5.936320190429687500e+02,5.955249633789062500e+02,5.955249633789062500e+02,5.956519775390625000e+02,5.956519775390625000e+02,5.945757446289062500e+02,5.945757446289062500e+02,5.961538085937500000e+02,5.961538085937500000e+02,5.945358276367187500e+02,5.945358276367187500e+02,5.953438110351562500e+02,5.953438110351562500e+02,5.961420288085937500e+02,5.961420288085937500e+02,5.963328857421875000e+02,5.963328857421875000e+02,6.096165771484375000e+02,6.096165771484375000e+02,6.122655029296875000e+02,6.122655029296875000e+02,6.460113525390625000e+02,6.460113525390625000e+02,6.451535034179687500e+02,6.451535034179687500e+02,6.443699951171875000e+02,6.443699951171875000e+02,6.446593017578125000e+02,6.446593017578125000e+02,6.452709350585937500e+02,6.452709350585937500e+02,6.437546997070312500e+02,6.437546997070312500e+02,6.442544555664062500e+02,6.442544555664062500e+02,6.443555297851562500e+02,6.443555297851562500e+02,6.442585449218750000e+02,6.442585449218750000e+02,6.446205444335937500e+02,6.446205444335937500e+02,6.449460449218750000e+02,6.449460449218750000e+02,6.451077270507812500e+02,6.451077270507812500e+02,6.455579833984375000e+02,6.455579833984375000e+02,6.469525146484375000e+02,6.469525146484375000e+02,6.467062988281250000e+02,6.467062988281250000e+02,6.465972290039062500e+02,6.465972290039062500e+02,6.438246459960937500e+02,6.438246459960937500e+02,6.462902832031250000e+02,6.462902832031250000e+02,6.460507202148437500e+02,6.460507202148437500e+02,6.456213378906250000e+02,6.456213378906250000e+02,6.452500610351562500e+02,6.452500610351562500e+02,6.443677368164062500e+02,6.443677368164062500e+02,6.473847045898437500e+02,6.473847045898437500e+02,6.464838867187500000e+02,6.464838867187500000e+02,6.475213012695312500e+02,6.475213012695312500e+02,6.398100585937500000e+02,6.398100585937500000e+02
6.450456542968750000e+02,6.431107177734375000e+02,6.431107177734375000e+02,6.435720825195312500e+02,6.435720825195312500e+02,6.451520385742187500e+02,6.451520385742187500e+02,6.435788574218750000e+02,6.435788574218750000e+02,6.436715698242187500e+02,6.436715698242187500e+02,6.450585937500000000e+02,6.450585937500000000e+02,6.464648437500000000e+02,6.464648437500000000e+02,6.451848144531250000e+02,6.451848144531250000e+02,6.436683349609375000e+02,6.436683349609375000e+02,6.453698120117187500e+02,6.453698120117187500e+02,6.435769042968750000e+02,6.435769042968750000e+02,6.444347534179687500e+02,6.444347534179687500e+02,6.437847900390625000e+02,6.437847900390625000e+02,6.441179809570312500e+02,6.441179809570312500e+02,6.449859008789062500e+02,6.449859008789062500e+02,6.626594848632812500e+02,6.626594848632812500e+02,6.528061523437500000e+02,6.528061523437500000e+02,5.973247680664062500e+02,5.973247680664062500e+02,5.958339233398437500e+02,5.958339233398437500e+02,5.950401611328125000e+02,5.950401611328125000e+02,5.962081909179687500e+02,5.962081909179687500e+02,5.959324951171875000e+02,5.959324951171875000e+02,5.960387573242187500e+02,5.960387573242187500e+02,5.942941894531250000e+02,5.942941894531250000e+02,5.938868408203125000e+02,5.938868408203125000e+02,5.949315185546875000e+02,5.949315185546875000e+02,5.951706542968750000e+02,5.951706542968750000e+02,5.944353027343750000e+02,5.944353027343750000e+02,5.948407592773437500e+02,5.948407592773437500e+02,5.951037597656250000e+02,5.951037597656250000e+02,5.987824707031250000e+02,5.987824707031250000e+02,6.003838500976562500e+02,6.003838500976562500e+02,6.179320068359375000e+02,6.179320068359375000e+02,6.449597778320312500e+02,6.449597778320312500e+02,6.447606201171875000e+02,6.447606201171875000e+02,6.454672241210937500e+02,6.454672241210937500e+02,6.450346069335937500e+02,6.450346069335937500e+02,6.456838378906250000e+02,6.456838378906250000e+02,6.439312133789062500e+02,6.439312133789062500e+02,6.443371582031250000e+02,6.443371582031250000e+02,6.440110473632812500e+02,6.440110473632812500e+02,6.445094604492187500e+02,6.445094604492187500e+02,6.435208740234375000e+02,6.435208740234375000e+02,6.445449218750000000e+02,6.445449218750000000e+02,6.435311279296875000e+02,6.435311279296875000e+02,6.444710693359375000e+02,6.444710693359375000e+02,6.439921875000000000e+02,6.439921875000000000e+02,6.465420532226562500e+02,6.465420532226562500e+02,6.456650390625000000e+02,6.456650390625000000e+02,6.440808105468750000e+02,6.440808105468750000e+02,6.464857177734375000e+02,6.464857177734375000e+02,6.453533325195312500e+02,6.453533325195312500e+02,6.461646728515625000e+02,6.461646728515625000e+02,6.442614746093750000e+02,6.442614746093750000e+02,6.463237304687500000e+02,6.463237304687500000e+02,6.469455566406250000e+02,6.469455566406250000e+02,6.454758300781250000e+02,6.454758300781250000e+02,6.452487182617187500e+02,6.452487182617187500e+02,6.398100585937500000e+02,6.398100585937500000e+02
6.431644897460937500e+02,6.439159545898437500e+02,6.439159545898437500e+02,6.444400024414062500e+02,6.444400024414062500e+02,6.450529174804687500e+02,6.450529174804687500e+02,6.459302368164062500e+02,6.459302368164062500e+02,6.454547119140625000e+02,6.454547119140625000e+02,6.447809448242187500e+02,6.447809448242187500e+02,6.432677612304687500e+02,6.432677612304687500e+02,6.440323486328125000e+02,6.440323486328125000e+02,6.423704833984375000e+02,6.423704833984375000e+02,6.455537109375000000e+02,6.455537109375000000e+02,6.408916625976562500e+02,6.408916625976562500e+02,6.429471435546875000e+02,6.429471435546875000e+02,6.434938354492187500e+02,6.434938354492187500e+02,6.447918090820312500e+02,6.447918090820312500e+02,6.417880859375000000e+02,6.417880859375000000e+02,6.584263916015625000e+02,6.584263916015625000e+02,6.564678344726562500e+02,6.564678344726562500e+02,5.982424926757812500e+02,5.982424926757812500e+02,5.954063110351562500e+02,5.954063110351562500e+02,5.953979492187500000e+02,5.953979492187500000e+02,5.956459960937500000e+02,5.956459960937500000e+02,5.943342895507812500e+02,5.943342895507812500e+02,5.939985351562500000e+02,5.939985351562500000e+02,5.946046142578125000e+02,5.946046142578125000e+02,5.949980468750000000e+02,5.949980468750000000e+02,5.941873779296875000e+02,5.941873779296875000e+02,5.941915893554687500e+02,5.941915893554687500e+02,5.941671752929687500e+02,5.941671752929687500e+02,5.945482177734375000e+02,5.945482177734375000e+02,5.949537353515625000e+02,5.949537353515625000e+02,5.985570068359375000e+02,5.985570068359375000e+02,5.991801147460937500e+02,5.991801147460937500e+02,6.085044555664062500e+02,6.085044555664062500e+02,6.453535156250000000e+02,6.453535156250000000e+02,6.443710327148437500e+02,6.443710327148437500e+02,6.449603271484375000e+02,6.449603271484375000e+02,6.456997070312500000e+02,6.456997070312500000e+02,6.449113159179687500e+02,6.449113159179687500e+02,6.438657836914062500e+02,6.438657836914062500e+02,6.442708129882812500e+02,6.442708129882812500e+02,6.439611206054687500e+02,6.439611206054687500e+02,6.436127319335937500e+02,6.436127319335937500e+02,6.445147094726562500e+02,6.445147094726562500e+02,6.434533691406250000e+02,6.434533691406250000e+02,6.441348266601562500e+02,6.441348266601562500e+02,6.435878295898437500e+02,6.435878295898437500e+02,6.423977050781250000e+02,6.423977050781250000e+02,6.451223754882812500e+02,6.451223754882812500e+02,6.462673950195312500e+02,6.462673950195312500e+02,6.471380615234375000e+02,6.471380615234375000e+02,6.453887939453125000e+02,6.453887939453125000e+02,6.454390869140625000e+02,6.454390869140625000e+02,6.449253540039062500e+02,6.449253540039062500e+02,6.453323974609375000e+02,6.453323974609375000e+02,6.416493530273437500e+02,6.416493530273437500e+02,6.457868041992187500e+02,6.457868041992187500e+02,6.482052612304687500e+02,6.482052612304687500e+02,6.468923339843750000e+02,6.468923339843750000e+02,6.398100585937500000e+02,6.398100585937500000e+02
6.431163330078125000e+02,6.443128662109375000e+02,6.443128662109375000e+02,6.437890625000000000e+02,6.437890625000000000e+02,6.448923339843750000e+02,6.448923339843750000e+02,6.460263061523437500e+02,6.460263061523437500e+02,6.469678344726562500e+02,6.469678344726562500e+02,6.463772583007812500e+02,6.463772583007812500e+02,6.463869628906250000e+02,6.463869628906250000e+02,6.439373168945312500e+02,6.439373168945312500e+02,6.426609497070312500e+02,6.426609497070312500e+02,6.432684326171875000e+02,6.432684326171875000e+02,6.434764404296875000e+02,6.434764404296875000e+02,6.434397583007812500e+02,6.434397583007812500e+02,6.445583496093750000e+02,6.445583496093750000e+02,6.463538818359375000e+02,6.463538818359375000e+02,6.440769653320312500e+02,6.440769653320312500e+02,6.795864257812500000e+02,6.795864257812500000e+02,6.893666381835937500e+02,6.893666381835937500e+02,5.975171508789062500e+02,5.975171508789062500e+02,5.945285034179687500e+02,5.945285034179687500e+02,5.959160156250000000e+02,5.959160156250000000e+02,5.955164794921875000e+02,5.955164794921875000e+02,5.951211547851562500e+02,5.951211547851562500e+02,5.935587768554687500e+02,5.935587768554687500e+02,5.924543457031250000e+02,5.924543457031250000e+02,5.948013305664062500e+02,5.948013305664062500e+02,5.953607177734375000e+02,5.953607177734375000e+02,5.953464965820312500e+02,5.953464965820312500e+02,5.937305297851562500e+02,5.937305297851562500e+02,5.956527099609375000e+02,5.956527099609375000e+02,5.958334350585937500e+02,5.958334350585937500e+02,5.967514038085937500e+02,5.967514038085937500e+02,5.998240966796875000e+02,5.998240966796875000e+02,6.085617065429687500e+02,6.085617065429687500e+02,6.450882568359375000e+02,6.450882568359375000e+02,6.449600219726562500e+02,6.449600219726562500e+02,6.447219238281250000e+02,6.447219238281250000e+02,6.453781127929687500e+02,6.453781127929687500e+02,6.441406860351562500e+02,6.441406860351562500e+02,6.439628295898437500e+02,6.439628295898437500e+02,6.435353393554687500e+02,6.435353393554687500e+02,6.455319213867187500e+02,6.455319213867187500e+02,6.450317993164062500e+02,6.450317993164062500e+02,6.432665405273437500e+02,6.432665405273437500e+02,6.438056640625000000e+02,6.438056640625000000e+02,6.444690551757812500e+02,6.444690551757812500e+02,6.433721923828125000e+02,6.433721923828125000e+02,6.434973144531250000e+02,6.434973144531250000e+02,6.469539184570312500e+02,6.469539184570312500e+02,6.438371582031250000e+02,6.438371582031250000e+02,6.452603759765625000e+02,6.452603759765625000e+02,6.431112670898437500e+02,6.431112670898437500e+02,6.455520019531250000e+02,6.455520019531250000e+02,6.451631469726562500e+02,6.451631469726562500e+02,6.454475097656250000e+02,6.454475097656250000e+02,6.452699584960937500e+02,6.452699584960937500e+02,6.458844604492187500e+02,6.458844604492187500e+02,6.457794799804687500e+02,6.457794799804687500e+02,6.476480102539062500e+02,6.476480102539062500e+02,6.398100585937500000e+02,6.398100585937500000e+02
6.441876220703125000e+02,6.458709106445312500e+02,6.458709106445312500e+02,6.465629272460937500e+02,6.465629272460937500e+02,6.458702392578125000e+02,6.458702392578125000e+02,6.465193481445312500e+02,6.465193481445312500e+02,6.461002197265625000e+02,6.461002197265625000e+02,6.464294433593750000e+02,6.464294433593750000e+02,6.455797119140625000e+02,6.455797119140625000e+02,6.467431030273437500e+02,6.467431030273437500e+02,6.449179077148437500e+02,6.449179077148437500e+02,6.463373413085937500e+02,6.463373413085937500e+02,6.473766479492187500e+02,6.473766479492187500e+02,6.456519165039062500e+02,6.456519165039062500e+02,6.396751098632812500e+02,6.396751098632812500e+02,6.452739257812500000e+02,6.452739257812500000e+02,6.425710449218750000e+02,6.425710449218750000e+02,6.650381469726562500e+02,6.650381469726562500e+02,6.627331542968750000e+02,6.627331542968750000e+02,6.013386230468750000e+02,6.013386230468750000e+02,5.959960327148437500e+02,5.959960327148437500e+02,5.934628295898437500e+02,5.934628295898437500e+02,5.957695922851562500e+02,5.957695922851562500e+02,5.952580566406250000e+02,5.952580566406250000e+02,5.937246093750000000e+02,5.937246093750000000e+02,5.945480957031250000e+02,5.945480957031250000e+02,5.945298461914062500e+02,5.945298461914062500e+02,5.946533203125000000e+02,5.946533203125000000e+02,5.937939453125000000e+02,5.937939453125000000e+02,5.939660644531250000e+02,5.939660644531250000e+02,5.949786376953125000e+02,5.949786376953125000e+02,5.955368652343750000e+02,5.955368652343750000e+02,6.035955200195312500e+02,6.035955200195312500e+02,6.001776123046875000e+02,6.001776123046875000e+02,6.161014404296875000e+02,6.161014404296875000e+02,6.448184204101562500e+02,6.448184204101562500e+02,6.468820800781250000e+02,6.468820800781250000e+02,6.458647460937500000e+02,6.458647460937500000e+02,6.457575683593750000e+02,6.457575683593750000e+02,6.463852539062500000e+02,6.463852539062500000e+02,6.438624877929687500e+02,6.438624877929687500e+02,6.446455078125000000e+02,6.446455078125000000e+02,6.443202514648437500e+02,6.443202514648437500e+02,6.452635498046875000e+02,6.452635498046875000e+02,6.446574096679687500e+02,6.446574096679687500e+02,6.442359008789062500e+02,6.442359008789062500e+02,6.467622680664062500e+02,6.467622680664062500e+02,6.463565063476562500e+02,6.463565063476562500e+02,6.470118408203125000e+02,6.470118408203125000e+02,6.463355712890625000e+02,6.463355712890625000e+02,6.466166381835937500e+02,6.466166381835937500e+02,6.460007934570312500e+02,6.460007934570312500e+02,6.461877441406250000e+02,6.461877441406250000e+02,6.453504638671875000e+02,6.453504638671875000e+02,6.473559570312500000e+02,6.473559570312500000e+02,6.455857543945312500e+02,6.455857543945312500e+02,6.429834594726562500e+02,6.429834594726562500e+02,6.457901000976562500e+02,6.457901000976562500e+02,6.450178222656250000e+02,6.450178222656250000e+02,6.440140991210937500e+02,6.440140991210937500e+02,6.398100585937500000e+02,6.398100585937500000e+02
6.439765014648437500e+02,6.448684692382812500e+02,6.448684692382812500e+02,6.455490722656250000e+02,6.455490722656250000e+02,6.440726318359375000e+02,6.440726318359375000e+02,6.446502685546875000e+02,6.446502685546875000e+02,6.438856811523437500e+02,6.438856811523437500e+02,6.445328979492187500e+02,6.445328979492187500e+02,6.446621704101562500e+02,6.446621704101562500e+02,6.466336669921875000e+02,6.466336669921875000e+02,6.457138061523437500e+02,6.457138061523437500e+02,6.441778564453125000e+02,6.441778564453125000e+02,6.451170043945312500e+02,6.451170043945312500e+02,6.459380493164062500e+02,6.459380493164062500e+02,6.450899658203125000e+02,6.450899658203125000e+02,6.441936645507812500e+02,6.441936645507812500e+02,6.419548950195312500e+02,6.419548950195312500e+02,6.508104858398437500e+02,6.508104858398437500e+02,6.853585815429687500e+02,6.853585815429687500e+02,6.083699951171875000e+02,6.083699951171875000e+02,5.962171020507812500e+02,5.962171020507812500e+02,5.949982299804687500e+02,5.949982299804687500e+02,5.962411499023437500e+02,5.962411499023437500e+02,5.959886474609375000e+02,5.959886474609375000e+02,5.955488891601562500e+02,5.955488891601562500e+02,5.951442871093750000e+02,5.951442871093750000e+02,5.953636474609375000e+02,5.953636474609375000e+02,5.936435546875000000e+02,5.936435546875000000e+02,5.943340454101562500e+02,5.943340454101562500e+02,5.942115478515625000e+02,5.942115478515625000e+02,5.943416137695312500e+02,5.943416137695312500e+02,5.979876098632812500e+02,5.979876098632812500e+02,6.037569580078125000e+02,6.037569580078125000e+02,6.003743286132812500e+02,6.003743286132812500e+02,6.150174560546875000e+02,6.150174560546875000e+02,6.455858764648437500e+02,6.455858764648437500e+02,6.443385009765625000e+02,6.443385009765625000e+02,6.454839477539062500e+02,6.454839477539062500e+02,6.445297241210937500e+02,6.445297241210937500e+02,6.407652587890625000e+02,6.407652587890625000e+02,6.451879882812500000e+02,6.451879882812500000e+02,6.447233276367187500e+02,6.447233276367187500e+02,6.434341430664062500e+02,6.434341430664062500e+02,6.442138061523437500e+02,6.442138061523437500e+02,6.455643310546875000e+02,6.455643310546875000e+02,6.441762695312500000e+02,6.441762695312500000e+02,6.451835937500000000e+02,6.451835937500000000e+02,6.468369140625000000e+02,6.468369140625000000e+02,6.466734008789062500e+02,6.466734008789062500e+02,6.460434570312500000e+02,6.460434570312500000e+02,6.476880493164062500e+02,6.476880493164062500e+02,6.468511962890625000e+02,6.468511962890625000e+02,6.463193969726562500e+02,6.463193969726562500e+02,6.456090698242187500e+02,6.456090698242187500e+02,6.471671752929687500e+02,6.471671752929687500e+02,6.462282104492187500e+02,6.462282104492187500e+02,6.474591674804687500e+02,6.474591674804687500e+02,6.458038940429687500e+02,6.458038940429687500e+02,6.460266723632812500e+02,6.460266723632812500e+02,6.449129638671875000e+02,6.449129638671875000e+02,6.398100585937500000e+02,6.398100585937500000e+02
6.461201782226562500e+02,6.438088989257812500e+02,6.438088989257812500e+02,6.447968139648437500e+02,6.447968139648437500e+02,6.463585205078125000e+02,6.463585205078125000e+02,6.457714843750000000e+02,6.457714843750000000e+02,6.431914672851562500e+02,6.431914672851562500e+02,6.437938842773437500e+02,6.437938842773437500e+02,6.461443481445312500e+02,6.461443481445312500e+02,6.449819946289062500e+02,6.449819946289062500e+02,6.456336669921875000e+02,6.456336669921875000e+02,6.453793334960937500e+02,6.453793334960937500e+02,6.430844116210937500e+02,6.430844116210937500e+02,6.452515869140625000e+02,6.452515869140625000e+02,6.453213500976562500e+02,6.453213500976562500e+02,6.437453613281250000e+02,6.437453613281250000e+02,6.438986206054687500e+02,6.438986206054687500e+02,6.521005249023437500e+02,6.521005249023437500e+02,6.815155639648437500e+02,6.815155639648437500e+02,6.559580078125000000e+02,6.559580078125000000e+02,5.955482788085937500e+02,5.955482788085937500e+02,5.959151611328125000e+02,5.959151611328125000e+02,5.958297119140625000e+02,5.958297119140625000e+02,5.951064453125000000e+02,5.951064453125000000e+02,5.961466064453125000e+02,5.961466064453125000e+02,5.943558349609375000e+02,5.943558349609375000e+02,5.941139526367187500e+02,5.941139526367187500e+02,5.950654907226562500e+02,5.950654907226562500e+02,5.942385864257812500e+02,5.942385864257812500e+02,5.939744873046875000e+02,5.939744873046875000e+02,5.964204711914062500e+02,5.964204711914062500e+02,5.971086425781250000e+02,5.971086425781250000e+02,5.999342041015625000e+02,5.999342041015625000e+02,6.013517456054687500e+02,6.013517456054687500e+02,6.109888305664062500e+02,6.109888305664062500e+02,6.455714111328125000e+02,6.455714111328125000e+02,6.481927490234375000e+02,6.481927490234375000e+02,6.459722290039062500e+02,6.459722290039062500e+02,6.467902832031250000e+02,6.467902832031250000e+02,6.443599243164062500e+02,6.443599243164062500e+02,6.452699584960937500e+02,6.452699584960937500e+02,6.439940795898437500e+02,6.439940795898437500e+02,6.436372680664062500e+02,6.436372680664062500e+02,6.447462768554687500e+02,6.447462768554687500e+02,6.433026123046875000e+02,6.433026123046875000e+02,6.435139770507812500e+02,6.435139770507812500e+02,6.463698730468750000e+02,6.463698730468750000e+02,6.464539184570312500e+02,6.464539184570312500e+02,6.445444946289062500e+02,6.445444946289062500e+02,6.455796508789062500e+02,6.455796508789062500e+02,6.468781738281250000e+02,6.468781738281250000e+02,6.463074340820312500e+02,6.463074340820312500e+02,6.462305908203125000e+02,6.462305908203125000e+02,6.465968627929687500e+02,6.465968627929687500e+02,6.447389526367187500e+02,6.447389526367187500e+02,6.447207031250000000e+02,6.447207031250000000e+02,6.472441406250000000e+02,6.472441406250000000e+02,6.449735717773437500e+02,6.449735717773437500e+02,6.453382568359375000e+02,6.453382568359375000e+02,6.444785766601562500e+02,6.444785766601562500e+02,6.398100585937500000e+02,6.398100585937500000e+02
6.440698242187500000e+02,6.457837524414062500e+02,6.457837524414062500e+02,6.451940307617187500e+02,6.451940307617187500e+02,6.462921752929687500e+02,6.462921752929687500e+02,6.458141479492187500e+02,6.458141479492187500e+02,6.458901367187500000e+02,6.458901367187500000e+02,6.442747802734375000e+02,6.442747802734375000e+02,6.444945068359375000e+02,6.444945068359375000e+02,6.446082763671875000e+02,6.446082763671875000e+02,6.434786987304687500e+02,6.434786987304687500e+02,6.439607543945312500e+02,6.439607543945312500e+02,6.447532348632812500e+02,6.447532348632812500e+02,6.463201293945312500e+02,6.463201293945312500e+02,6.451964111328125000e+02,6.451964111328125000e+02,6.451433715820312500e+02,6.451433715820312500e+02,6.457147216796875000e+02,6.457147216796875000e+02,6.463766479492187500e+02,6.463766479492187500e+02,6.871837158203125000e+02,6.871837158203125000e+02,6.852874145507812500e+02,6.852874145507812500e+02,5.981898803710937500e+02,5.981898803710937500e+02,5.965031127929687500e+02,5.965031127929687500e+02,5.945957641601562500e+02,5.945957641601562500e+02,5.949442749023437500e+02,5.949442749023437500e+02,5.935780639648437500e+02,5.935780639648437500e+02,5.942127075195312500e+02,5.942127075195312500e+02,5.946481933593750000e+02,5.946481933593750000e+02,5.934326171875000000e+02,5.934326171875000000e+02,5.946045532226562500e+02,5.946045532226562500e+02,5.942649536132812500e+02,5.942649536132812500e+02,5.966420288085937500e+02,5.966420288085937500e+02,5.994152832031250000e+02,5.994152832031250000e+02,6.010266113281250000e+02,6.010266113281250000e+02,6.011641845703125000e+02,6.011641845703125000e+02,6.045843505859375000e+02,6.045843505859375000e+02,6.452460937500000000e+02,6.452460937500000000e+02,6.442586669921875000e+02,6.442586669921875000e+02,6.445137329101562500e+02,6.445137329101562500e+02,6.452340087890625000e+02,6.452340087890625000e+02,6.461692504882812500e+02,6.461692504882812500e+02,6.440209350585937500e+02,6.440209350585937500e+02,6.447533569335937500e+02,6.447533569335937500e+02,6.436365356445312500e+02,6.436365356445312500e+02,6.441422729492187500e+02,6.441422729492187500e+02,6.448971557617187500e+02,6.448971557617187500e+02,6.424514770507812500e+02,6.424514770507812500e+02,6.461488647460937500e+02,6.461488647460937500e+02,6.441564941406250000e+02,6.441564941406250000e+02,6.470156250000000000e+02,6.470156250000000000e+02,6.467460937500000000e+02,6.467460937500000000e+02,6.448298950195312500e+02,6.448298950195312500e+02,6.458074951171875000e+02,6.458074951171875000e+02,6.455226440429687500e+02,6.455226440429687500e+02,6.451184082031250000e+02,6.451184082031250000e+02,6.462500000000000000e+02,6.462500000000000000e+02,6.450081176757812500e+02,6.450081176757812500e+02,6.478505249023437500e+02,6.478505249023437500e+02,6.451913452148437500e+02,6.451913452148437500e+02,6.456530151367187500e+02,6.456530151367187500e+02,6.426875610351562500e+02,6.426875610351562500e+02,6.398100585937500000e+02,6.398100585937500000e+02
6.457880249023437500e+02,6.453399047851562500e+02,6.453399047851562500e+02,6.454420166015625000e+02,6.454420166015625000e+02,6.449736938476562500e+02,6.449736938476562500e+02,6.452215576171875000e+02,6.452215576171875000e+02,6.455660400390625000e+02,6.455660400390625000e+02,6.467767333984375000e+02,6.467767333984375000e+02,6.458635864257812500e+02,6.458635864257812500e+02,6.458934326171875000e+02,6.458934326171875000e+02,6.480928955078125000e+02,6.480928955078125000e+02,6.457081298828125000e+02,6.457081298828125000e+02,6.439322509765625000e+02,6.439322509765625000e+02,6.461404418945312500e+02,6.461404418945312500e+02,6.490256958007812500e+02,6.490256958007812500e+02,6.453276367187500000e+02,6.453276367187500000e+02,6.462719726562500000e+02,6.462719726562500000e+02,6.449959716796875000e+02,6.449959716796875000e+02,6.808217773437500000e+02,6.808217773437500000e+02,6.835984497070312500e+02,6.835984497070312500e+02,6.046925048828125000e+02,6.046925048828125000e+02,5.952347412109375000e+02,5.952347412109375000e+02,5.950565795898437500e+02,5.950565795898437500e+02,5.945538940429687500e+02,5.945538940429687500e+02,5.897770996093750000e+02,5.897770996093750000e+02,5.942814331054687500e+02,5.942814331054687500e+02,5.931562500000000000e+02,5.931562500000000000e+02,5.931274414062500000e+02,5.931274414062500000e+02,5.936112670898437500e+02,5.936112670898437500e+02,5.937300415039062500e+02,5.937300415039062500e+02,5.940947875976562500e+02,5.940947875976562500e+02,5.972321166992187500e+02,5.972321166992187500e+02,6.010519409179687500e+02,6.010519409179687500e+02,5.996625366210937500e+02,5.996625366210937500e+02,6.042995605468750000e+02,6.042995605468750000e+02,6.420921020507812500e+02,6.420921020507812500e+02,6.454536132812500000e+02,6.454536132812500000e+02,6.461462402343750000e+02,6.461462402343750000e+02,6.428466186523437500e+02,6.428466186523437500e+02,6.430213012695312500e+02,6.430213012695312500e+02,6.434496459960937500e+02,6.434496459960937500e+02,6.430721435546875000e+02,6.430721435546875000e+02,6.462706298828125000e+02,6.462706298828125000e+02,6.456810302734375000e+02,6.456810302734375000e+02,6.445663452148437500e+02,6.445663452148437500e+02,6.448466796875000000e+02,6.448466796875000000e+02,6.465449829101562500e+02,6.465449829101562500e+02,6.451572265625000000e+02,6.451572265625000000e+02,6.457639770507812500e+02,6.457639770507812500e+02,6.471186523437500000e+02,6.471186523437500000e+02,6.436390991210937500e+02,6.436390991210937500e+02,6.454938964843750000e+02,6.454938964843750000e+02,6.455916137695312500e+02,6.455916137695312500e+02,6.428663940429687500e+02,6.428663940429687500e+02,6.442866210937500000e+02,6.442866210937500000e+02,6.447634277343750000e+02,6.447634277343750000e+02,6.454367065429687500e+02,6.454367065429687500e+02,6.472310791015625000e+02,6.472310791015625000e+02,6.468447875976562500e+02,6.468447875976562500e+02,6.491563110351562500e+02,6.491563110351562500e+02,6.398100585937500000e+02,6.398100585937500000e+02
6.467362060546875000e+02,6.443389282226562500e+02,6.443389282226562500e+02,6.473937988281250000e+02,6.473937988281250000e+02,6.438884887695312500e+02,6.438884887695312500e+02,6.458040771484375000e+02,6.458040771484375000e+02,6.454134521484375000e+02,6.454134521484375000e+02,6.463421630859375000e+02,6.463421630859375000e+02,6.461843872070312500e+02,6.461843872070312500e+02,6.459640502929687500e+02,6.459640502929687500e+02,6.468902587890625000e+02,6.468902587890625000e+02,6.442059936523437500e+02,6.442059936523437500e+02,6.458261108398437500e+02,6.458261108398437500e+02,6.451591796875000000e+02,6.451591796875000000e+02,6.442161865234375000e+02,6.442161865234375000e+02,6.456179809570312500e+02,6.456179809570312500e+02,6.443449096679687500e+02,6.443449096679687500e+02,6.455516357421875000e+02,6.455516357421875000e+02,6.179486694335937500e+02,6.179486694335937500e+02,1.050250976562500000e+03,1.050250976562500000e+03,5.999844970703125000e+02,5.999844970703125000e+02,5.964816894531250000e+02,5.964816894531250000e+02,5.949218750000000000e+02,5.949218750000000000e+02,5.954607543945312500e+02,5.954607543945312500e+02,5.924839477539062500e+02,5.924839477539062500e+02,5.938872070312500000e+02,5.938872070312500000e+02,5.935419311523437500e+02,5.935419311523437500e+02,5.936552734375000000e+02,5.936552734375000000e+02,5.934957885742187500e+02,5.934957885742187500e+02,5.961212768554687500e+02,5.961212768554687500e+02,5.956901855468750000e+02,5.956901855468750000e+02,5.982661132812500000e+02,5.982661132812500000e+02,5.994007568359375000e+02,5.994007568359375000e+02,5.997799072265625000e+02,5.997799072265625000e+02,6.045594482421875000e+02,6.045594482421875000e+02,6.441503906250000000e+02,6.441503906250000000e+02,6.434171142578125000e+02,6.434171142578125000e+02,6.457299804687500000e+02,6.457299804687500000e+02,6.458476562500000000e+02,6.458476562500000000e+02,6.441932983398437500e+02,6.441932983398437500e+02,6.453759155273437500e+02,6.453759155273437500e+02,6.463524780273437500e+02,6.463524780273437500e+02,6.452915649414062500e+02,6.452915649414062500e+02,6.430926513671875000e+02,6.430926513671875000e+02,6.467483520507812500e+02,6.467483520507812500e+02,6.461753540039062500e+02,6.461753540039062500e+02,6.412113037109375000e+02,6.412113037109375000e+02,6.446833496093750000e+02,6.446833496093750000e+02,6.443863525390625000e+02,6.443863525390625000e+02,6.459670410156250000e+02,6.459670410156250000e+02,6.459648437500000000e+02,6.459648437500000000e+02,6.444094848632812500e+02,6.444094848632812500e+02,6.428453369140625000e+02,6.428453369140625000e+02,6.425578613281250000e+02,6.425578613281250000e+02,6.434428100585937500e+02,6.434428100585937500e+02,6.451386718750000000e+02,6.451386718750000000e+02,6.423244018554687500e+02,6.423244018554687500e+02,6.445671386718750000e+02,6.445671386718750000e+02,6.461989135742187500e+02,6.461989135742187500e+02,6.486448974609375000e+02,6.486448974609375000e+02,6.398100585937500000e+02,6.398100585937500000e+02
6.461303100585937500e+02,6.454345092773437500e+02,6.454345092773437500e+02,6.452453613281250000e+02,6.452453613281250000e+02,6.450543823242187500e+02,6.450543823242187500e+02,6.458002319335937500e+02,6.458002319335937500e+02,6.467003173828125000e+02,6.467003173828125000e+02,6.455657958984375000e+02,6.455657958984375000e+02,6.464602050781250000e+02,6.464602050781250000e+02,6.466583862304687500e+02,6.466583862304687500e+02,6.442143554687500000e+02,6.442143554687500000e+02,6.456619873046875000e+02,6.456619873046875000e+02,6.446245727539062500e+02,6.446245727539062500e+02,6.452587890625000000e+02,6.452587890625000000e+02,6.437124633789062500e+02,6.437124633789062500e+02,6.447990722656250000e+02,6.447990722656250000e+02,6.457172851562500000e+02,6.457172851562500000e+02,6.464985961914062500e+02,6.464985961914062500e+02,6.633833007812500000e+02,6.633833007812500000e+02,6.866041259765625000e+02,6.866041259765625000e+02,6.076708984375000000e+02,6.076708984375000000e+02,5.973023681640625000e+02,5.973023681640625000e+02,5.961973266601562500e+02,5.961973266601562500e+02,5.944902954101562500e+02,5.944902954101562500e+02,5.933782958984375000e+02,5.933782958984375000e+02,5.913598632812500000e+02,5.913598632812500000e+02,5.918042602539062500e+02,5.918042602539062500e+02,5.924863891601562500e+02,5.924863891601562500e+02,5.939104614257812500e+02,5.939104614257812500e+02,5.952438354492187500e+02,5.952438354492187500e+02,5.981663818359375000e+02,5.981663818359375000e+02,5.992765502929687500e+02,5.992765502929687500e+02,5.982102050781250000e+02,5.982102050781250000e+02,5.995635375976562500e+02,5.995635375976562500e+02,6.049114990234375000e+02,6.049114990234375000e+02,6.442351684570312500e+02,6.442351684570312500e+02,6.436413574218750000e+02,6.436413574218750000e+02,6.452291870117187500e+02,6.452291870117187500e+02,6.460865478515625000e+02,6.460865478515625000e+02,6.449707641601562500e+02,6.449707641601562500e+02,6.461035156250000000e+02,6.461035156250000000e+02,6.442228393554687500e+02,6.442228393554687500e+02,6.448862915039062500e+02,6.448862915039062500e+02,6.444865112304687500e+02,6.444865112304687500e+02,6.450341186523437500e+02,6.450341186523437500e+02,6.468153686523437500e+02,6.468153686523437500e+02,6.460186157226562500e+02,6.460186157226562500e+02,6.459450683593750000e+02,6.459450683593750000e+02,6.468666992187500000e+02,6.468666992187500000e+02,6.459828491210937500e+02,6.459828491210937500e+02,6.469713134765625000e+02,6.469713134765625000e+02,6.462509155273437500e+02,6.462509155273437500e+02,6.452466430664062500e+02,6.452466430664062500e+02,6.456400756835937500e+02,6.456400756835937500e+02,6.436586914062500000e+02,6.436586914062500000e+02,6.471156616210937500e+02,6.471156616210937500e+02,6.444733886718750000e+02,6.444733886718750000e+02,6.437785644531250000e+02,6.437785644531250000e+02,6.470775756835937500e+02,6.470775756835937500e+02,6.476132202148437500e+02,6.476132202148437500e+02,6.398100585937500000e+02,6.398100585937500000e+02
6.456708374023437500e+02,6.452722167968750000e+02,6.452722167968750000e+02,6.452098999023437500e+02,6.452098999023437500e+02,6.444118652343750000e+02,6.444118652343750000e+02,6.449376220703125000e+02,6.449376220703125000e+02,6.447367553710937500e+02,6.447367553710937500e+02,6.452875366210937500e+02,6.452875366210937500e+02,6.460559692382812500e+02,6.460559692382812500e+02,6.443981323242187500e+02,6.443981323242187500e+02,6.465087890625000000e+02,6.465087890625000000e+02,6.438216552734375000e+02,6.438216552734375000e+02,6.452373046875000000e+02,6.452373046875000000e+02,6.448164672851562500e+02,6.448164672851562500e+02,6.458937377929687500e+02,6.458937377929687500e+02,6.428702392578125000e+02,6.428702392578125000e+02,6.442858276367187500e+02,6.442858276367187500e+02,6.448289184570312500e+02,6.448289184570312500e+02,6.591161499023437500e+02,6.591161499023437500e+02,1.047735229492187500e+03,1.047735229492187500e+03,1.047791503906250000e+03,1.047791503906250000e+03,6.012602539062500000e+02,6.012602539062500000e+02,5.941035766601562500e+02,5.941035766601562500e+02,5.948395385742187500e+02,5.948395385742187500e+02,5.923903808593750000e+02,5.923903808593750000e+02,5.920813598632812500e+02,5.920813598632812500e+02,5.934690551757812500e+02,5.934690551757812500e+02,5.932630615234375000e+02,5.932630615234375000e+02,5.948061523437500000e+02,5.948061523437500000e+02,5.973695678710937500e+02,5.973695678710937500e+02,6.003869018554687500e+02,6.003869018554687500e+02,5.987854614257812500e+02,5.987854614257812500e+02,5.993507690429687500e+02,5.993507690429687500e+02,6.002517700195312500e+02,6.002517700195312500e+02,6.089342041015625000e+02,6.089342041015625000e+02,6.441798706054687500e+02,6.441798706054687500e+02,6.445524291992187500e+02,6.445524291992187500e+02,6.462130737304687500e+02,6.462130737304687500e+02,6.459794311523437500e+02,6.459794311523437500e+02,6.449885253906250000e+02,6.449885253906250000e+02,6.453389282226562500e+02,6.453389282226562500e+02,6.444421997070312500e+02,6.444421997070312500e+02,6.432105102539062500e+02,6.432105102539062500e+02,6.439886474609375000e+02,6.439886474609375000e+02,6.432984619140625000e+02,6.432984619140625000e+02,6.466748046875000000e+02,6.466748046875000000e+02,6.450494995117187500e+02,6.450494995117187500e+02,6.442393798828125000e+02,6.442393798828125000e+02,6.446371459960937500e+02,6.446371459960937500e+02,6.444378051757812500e+02,6.444378051757812500e+02,6.455886840820312500e+02,6.455886840820312500e+02,6.449885864257812500e+02,6.449885864257812500e+02,6.463439331054687500e+02,6.463439331054687500e+02,6.459242553710937500e+02,6.459242553710937500e+02,6.439382934570312500e+02,6.439382934570312500e+02,6.433936767578125000e+02,6.433936767578125000e+02,6.442498779296875000e+02,6.442498779296875000e+02,6.444848022460937500e+02,6.444848022460937500e+02,6.461369628906250000e+02,6.461369628906250000e+02,6.458290405273437500e+02,6.458290405273437500e+02,6.398100585937500000e+02,6.398100585937500000e+02
6.440468139648437500e+02,6.453436889648437500e+02,6.453436889648437500e+02,6.460066528320312500e+02,6.460066528320312500e+02,6.465874023437500000e+02,6.465874023437500000e+02,6.460250244140625000e+02,6.460250244140625000e+02,6.458249511718750000e+02,6.458249511718750000e+02,6.448328247070312500e+02,6.448328247070312500e+02,6.470079956054687500e+02,6.470079956054687500e+02,6.468457641601562500e+02,6.468457641601562500e+02,6.445831298828125000e+02,6.445831298828125000e+02,6.447616577148437500e+02,6.447616577148437500e+02,6.452755737304687500e+02,6.452755737304687500e+02,6.449155273437500000e+02,6.449155273437500000e+02,6.451262817382812500e+02,6.451262817382812500e+02,6.433535156250000000e+02,6.433535156250000000e+02,6.436804199218750000e+02,6.436804199218750000e+02,6.437223510742187500e+02,6.437223510742187500e+02,6.486717529296875000e+02,6.486717529296875000e+02,1.030719970703125000e+03,1.030719970703125000e+03,1.028913085937500000e+03,1.028913085937500000e+03,6.423109130859375000e+02,6.423109130859375000e+02,5.984414672851562500e+02,5.984414672851562500e+02,5.975213623046875000e+02,5.975213623046875000e+02,5.965209350585937500e+02,5.965209350585937500e+02,5.957501831054687500e+02,5.957501831054687500e+02,5.945156250000000000e+02,5.945156250000000000e+02,5.963282470703125000e+02,5.963282470703125000e+02,5.964974365234375000e+02,5.964974365234375000e+02,5.986440429687500000e+02,5.986440429687500000e+02,6.031704101562500000e+02,6.031704101562500000e+02,6.010218505859375000e+02,6.010218505859375000e+02,6.019282836914062500e+02,6.019282836914062500e+02,6.042894897460937500e+02,6.042894897460937500e+02,6.108322143554687500e+02,6.108322143554687500e+02,6.450402221679687500e+02,6.450402221679687500e+02,6.444993896484375000e+02,6.444993896484375000e+02,6.458658447265625000e+02,6.458658447265625000e+02,6.434347534179687500e+02,6.434347534179687500e+02,6.428768310546875000e+02,6.428768310546875000e+02,6.462302246093750000e+02,6.462302246093750000e+02,6.449921875000000000e+02,6.449921875000000000e+02,6.435476074218750000e+02,6.435476074218750000e+02,6.446540527343750000e+02,6.446540527343750000e+02,6.429205932617187500e+02,6.429205932617187500e+02,6.450177612304687500e+02,6.450177612304687500e+02,6.421329345703125000e+02,6.421329345703125000e+02,6.462442626953125000e+02,6.462442626953125000e+02,6.456342773437500000e+02,6.456342773437500000e+02,6.464043579101562500e+02,6.464043579101562500e+02,6.473800048828125000e+02,6.473800048828125000e+02,6.459976196289062500e+02,6.459976196289062500e+02,6.459729003906250000e+02,6.459729003906250000e+02,6.450075073242187500e+02,6.450075073242187500e+02,6.453013916015625000e+02,6.453013916015625000e+02,6.455646362304687500e+02,6.455646362304687500e+02,6.427935180664062500e+02,6.427935180664062500e+02,6.435479736328125000e+02,6.435479736328125000e+02,6.447846069335937500e+02,6.447846069335937500e+02,6.438636474609375000e+02,6.438636474609375000e+02,6.398100585937500000e+02,6.398100585937500000e+02
6.441392822265625000e+02,6.454616699218750000e+02,6.454616699218750000e+02,6.456802368164062500e+02,6.456802368164062500e+02,6.464225463867187500e+02,6.464225463867187500e+02,6.448981323242187500e+02,6.448981323242187500e+02,6.447408447265625000e+02,6.447408447265625000e+02,6.460630493164062500e+02,6.460630493164062500e+02,6.453237915039062500e+02,6.453237915039062500e+02,6.465762939453125000e+02,6.465762939453125000e+02,6.444990234375000000e+02,6.444990234375000000e+02,6.475476684570312500e+02,6.475476684570312500e+02,6.448280029296875000e+02,6.448280029296875000e+02,6.423661499023437500e+02,6.423661499023437500e+02,6.453289794921875000e+02,6.453289794921875000e+02,6.449890136718750000e+02,6.449890136718750000e+02,6.447219848632812500e+02,6.447219848632812500e+02,6.430488281250000000e+02,6.430488281250000000e+02,6.448132324218750000e+02,6.448132324218750000e+02,6.599302368164062500e+02,6.599302368164062500e+02,6.829655151367187500e+02,6.829655151367187500e+02,6.494507446289062500e+02,6.494507446289062500e+02,5.996563110351562500e+02,5.996563110351562500e+02,5.983985595703125000e+02,5.983985595703125000e+02,5.957747802734375000e+02,5.957747802734375000e+02,5.960814819335937500e+02,5.960814819335937500e+02,5.961341552734375000e+02,5.961341552734375000e+02,5.973193359375000000e+02,5.973193359375000000e+02,5.983673706054687500e+02,5.983673706054687500e+02,6.031604003906250000e+02,6.031604003906250000e+02,6.028931274414062500e+02,6.028931274414062500e+02,5.993500976562500000e+02,5.993500976562500000e+02,6.027788696289062500e+02,6.027788696289062500e+02,6.034539184570312500e+02,6.034539184570312500e+02,6.175156250000000000e+02,6.175156250000000000e+02,6.429614257812500000e+02,6.429614257812500000e+02,6.418840942382812500e+02,6.418840942382812500e+02,6.441253662109375000e+02,6.441253662109375000e+02,6.445955810546875000e+02,6.445955810546875000e+02,6.449318237304687500e+02,6.449318237304687500e+02,6.435251464843750000e+02,6.435251464843750000e+02,6.433244018554687500e+02,6.433244018554687500e+02,6.447854614257812500e+02,6.447854614257812500e+02,6.435717773437500000e+02,6.435717773437500000e+02,6.460393676757812500e+02,6.460393676757812500e+02,6.446411743164062500e+02,6.446411743164062500e+02,6.450467529296875000e+02,6.450467529296875000e+02,6.456597290039062500e+02,6.456597290039062500e+02,6.433861083984375000e+02,6.433861083984375000e+02,6.454959106445312500e+02,6.454959106445312500e+02,6.460944213867187500e+02,6.460944213867187500e+02,6.461322021484375000e+02,6.461322021484375000e+02,6.467808227539062500e+02,6.467808227539062500e+02,6.464456787109375000e+02,6.464456787109375000e+02,6.451979980468750000e+02,6.451979980468750000e+02,6.466215209960937500e+02,6.466215209960937500e+02,6.445176391601562500e+02,6.445176391601562500e+02,6.441298217773437500e+02,6.441298217773437500e+02,6.434873657226562500e+02,6.434873657226562500e+02,6.431054077148437500e+02,6.431054077148437500e+02,6.398100585937500000e+02,6.398100585937500000e+02
6.446390380859375000e+02,6.439667358398437500e+02,6.439667358398437500e+02,6.434441528320312500e+02,6.434441528320312500e+02,6.454604492187500000e+02,6.454604492187500000e+02,6.454934082031250000e+02,6.454934082031250000e+02,6.452272949218750000e+02,6.452272949218750000e+02,6.448806152343750000e+02,6.448806152343750000e+02,6.465429687500000000e+02,6.465429687500000000e+02,6.458474121093750000e+02,6.458474121093750000e+02,6.457330932617187500e+02,6.457330932617187500e+02,6.444509887695312500e+02,6.444509887695312500e+02,6.447669677734375000e+02,6.447669677734375000e+02,6.449738159179687500e+02,6.449738159179687500e+02,6.444909667968750000e+02,6.444909667968750000e+02,6.432266235351562500e+02,6.432266235351562500e+02,6.430132446289062500e+02,6.430132446289062500e+02,6.431130371093750000e+02,6.431130371093750000e+02,6.450033569335937500e+02,6.450033569335937500e+02,6.805982055664062500e+02,6.805982055664062500e+02,6.633285522460937500e+02,6.633285522460937500e+02,6.197099609375000000e+02,6.197099609375000000e+02,6.092146606445312500e+02,6.092146606445312500e+02,5.973031005859375000e+02,5.973031005859375000e+02,5.963909301757812500e+02,5.963909301757812500e+02,5.952666015625000000e+02,5.952666015625000000e+02,5.956571655273437500e+02,5.956571655273437500e+02,5.957854614257812500e+02,5.957854614257812500e+02,6.013808593750000000e+02,6.013808593750000000e+02,6.037537231445312500e+02,6.037537231445312500e+02,6.013287353515625000e+02,6.013287353515625000e+02,6.011370849609375000e+02,6.011370849609375000e+02,6.023229370117187500e+02,6.023229370117187500e+02,6.029602050781250000e+02,6.029602050781250000e+02,6.092605590820312500e+02,6.092605590820312500e+02,6.446520385742187500e+02,6.446520385742187500e+02,6.417301635742187500e+02,6.417301635742187500e+02,6.443031005859375000e+02,6.443031005859375000e+02,6.445510864257812500e+02,6.445510864257812500e+02,6.444198608398437500e+02,6.444198608398437500e+02,6.436117553710937500e+02,6.436117553710937500e+02,6.454600219726562500e+02,6.454600219726562500e+02,6.457476196289062500e+02,6.457476196289062500e+02,6.447756958007812500e+02,6.447756958007812500e+02,6.449517211914062500e+02,6.449517211914062500e+02,6.450310058593750000e+02,6.450310058593750000e+02,6.454943847656250000e+02,6.454943847656250000e+02,6.430773315429687500e+02,6.430773315429687500e+02,6.459544067382812500e+02,6.459544067382812500e+02,6.464246215820312500e+02,6.464246215820312500e+02,6.465637207031250000e+02,6.465637207031250000e+02,6.457780151367187500e+02,6.457780151367187500e+02,6.462166748046875000e+02,6.462166748046875000e+02,6.442526855468750000e+02,6.442526855468750000e+02,6.451008911132812500e+02,6.451008911132812500e+02,6.442599487304687500e+02,6.442599487304687500e+02,6.444505615234375000e+02,6.444505615234375000e+02,6.420618896484375000e+02,6.420618896484375000e+02,6.463587036132812500e+02,6.463587036132812500e+02,6.463097534179687500e+02,6.463097534179687500e+02,6.398100585937500000e+02,6.398100585937500000e+02
